# .PCD v0.7 - Point Cloud Data file format
VERSION 0.7
FIELDS x y z flags rgba quality
SIZE 4 4 4 4 4 4
TYPE F F F I U F
COUNT 1 1 1 1 1 1
WIDTH 1029
HEIGHT 1
VIEWPOINT 0 0 0 1 0 0 0
POINTS 1029
DATA ascii
-21.846884 -2.6048603 19.996439 0 4284244578 0
-31.078842 -7.3930945 27.640026 0 4286542182 0
-29.641634 -7.0838246 26.473442 0 4286476902 0
-1.7710851 -15.804085 40.335121 0 4278190850 0
-21.543457 -1.7315098 21.124336 0 4281152046 0
-30.942991 -7.5603704 28.138996 0 4278584832 0
-27.027605 -3.3742239 23.742434 0 4281020711 0
-20.145945 -2.1176603 19.931295 0 4285232503 0
-3.7617619 -14.735329 35.048893 0 4280166439 0
-3.7617619 -14.735329 35.048893 0 4280166439 0
-22.557911 -8.4484224 29.078184 0 4288390826 0
-29.67967 -4.6738906 24.570288 0 4282072627 0
-12.281397 -9.2489223 30.277576 0 4279574807 0
-23.859636 -2.6723173 20.260578 0 4281612595 0
-28.162539 -1.6522911 21.09115 0 4285233532 0
-18.967236 -3.2286975 22.261711 0 4278198297 0
-22.257488 0.16672383 18.889242 0 4281678649 0
-21.387774 0.38132429 18.153008 0 4285495415 0
1.0947698 -12.946449 28.172815 0 4284243275 0
-10.184049 -18.028299 44.526066 0 4283258459 0
-4.3061032 -14.921373 36.395752 0 4279705881 0
-23.953159 -6.2769189 26.924337 0 4283127116 0
-21.287579 -6.5248923 27.757938 0 4279837213 0
-28.000122 -1.4033326 21.124376 0 4283455830 0
1.9780363 -6.9599299 30.691101 0 4278257932 0
-1.3322788 0.084530368 7.4638176 0 4286735935 0
-0.40525678 1.0684549 7.6239328 0 4284312176 0
-32.64547 -5.6658244 25.249819 0 4279374595 0
3.0563753 -13.211445 27.891888 0 4279574292 0
-29.521112 -4.4655104 22.951796 0 4279964676 0
-29.435368 -3.9469714 22.741045 0 4283324755 0
-27.673321 -2.8740988 21.307575 0 4280360974 0
-27.673321 -2.8740988 21.307575 0 4280360974 0
-27.78039 -1.4820138 20.641312 0 4278849801 0
-21.4853 0.94148737 18.656429 0 4283916379 0
-27.203859 -3.2766652 22.318958 0 4282205763 0
-27.28562 -2.8049374 21.300859 0 4283982946 0
-0.72319043 -0.22465612 7.6176281 0 4279439367 0
-1.3049314 -2.1764228 6.0457916 0 4284902245 0
-28.46137 -1.8169976 21.002813 0 4279046149 0
2.5161705 -10.09639 29.503166 0 4284638305 0
-22.812729 -7.3722348 24.539026 0 4284574563 0
-29.200487 -3.8645828 22.615877 0 4283389008 0
-27.420336 -3.0105512 21.17746 0 4280230166 0
-26.301044 -3.3013325 22.454365 0 4284375649 0
-24.262863 -2.7868285 20.350962 0 4285824386 0
-24.333927 -2.8163109 20.429558 0 4286021765 0
-28.147591 -1.5688708 21.386446 0 4278586117 0
-9.4163265 -13.417538 32.614655 0 4283785054 0
3.1992538 -12.522842 26.852856 0 4287336071 0
-24.371614 -6.0276546 27.274183 0 4278453761 0
-1.7631165 0.76502991 8.0985346 0 4290147850 0
-27.919729 -2.4031026 20.876907 0 4281745214 0
-0.74509126 -0.95759541 7.4853735 0 4287600799 0
-2.0095203 -10.66274 35.874943 0 4288127395 0
4.8127203 0.048627518 53.172802 0 4293061608 0
-9.7687616 -13.838739 33.665981 0 4285956475 0
-31.634975 -4.7805099 26.016375 0 4279112460 0
-28.842649 -3.3901017 21.628939 0 4286417537 0
-9.1096439 -13.814492 36.923504 0 4285891723 0
-19.302666 -3.9158523 22.049583 0 4278918162 0
-28.104733 -0.5907442 19.746202 0 4280231203 0
-8.669486 -1.6195327 10.308872 0 4284706158 0
-19.572474 -3.4390838 22.210899 0 4284377956 0
-1.2859133 -1.7673506 6.1066337 0 4286613124 0
-11.975022 -8.3197021 29.749346 0 4278323204 0
-27.882544 -0.278175 19.674782 0 4282797898 0
-27.806488 -0.28371757 19.656281 0 4282797898 0
-28.065617 -0.21688506 19.916309 0 4278652169 0
-0.70635813 -2.0056229 6.4562654 0 4285889403 0
-15.534941 -7.0504394 29.693981 0 4283652441 0
-29.556921 -0.016110457 20.821545 0 4283915350 0
-21.303314 -1.6611426 20.41396 0 4282994507 0
-7.9431953 -10.295312 34.283913 0 4289049526 0
-12.889629 -7.0475922 30.20262 0 4281414966 0
-22.696915 -0.72542012 19.924541 0 4282534476 0
-9.8926191 -8.6594744 32.618 0 4282797648 0
-9.5430164 -8.4485607 31.78933 0 4282797648 0
0.6820848 -10.507009 30.674053 0 4280626462 0
-0.0046171532 -9.1306171 31.08902 0 4280954146 0
-0.62046778 -1.5083289 7.0177808 0 4279830528 0
0.11572523 -7.0179749 30.825928 0 4285297252 0
1.857004 -7.1424112 30.630247 0 4278784260 0
1.8548266 -7.1399164 30.619446 0 4278784260 0
-0.5030753 -4.80545 28.667912 0 4285231219 0
-0.21348968 0.8979277 7.945437 0 4284837745 0
-1.858952 1.6947373 7.1339283 0 4287983701 0
-10.295438 -13.132289 31.818747 0 4282995279 0
-9.4271383 -14.105626 34.216125 0 4282008903 0
-9.3590784 -19.254461 45.350918 0 4286615183 0
-8.5347958 -18.158932 45.347134 0 4286744710 0
-28.004471 -0.74374086 18.546886 0 4281743915 0
0.021136543 -11.72817 29.168558 0 4279305216 0
-18.85113 -1.6926126 21.471928 0 4278849802 0
-22.255526 0.58573467 18.733156 0 4282204995 0
1.7814518 -9.8729277 29.685884 0 4278190592 0
1.3852333 -8.2158175 31.097101 0 4278192139 0
-1.2040755 1.5959655 7.590673 0 4279308569 0
-17.035185 -11.037506 29.732239 0 4279704597 0
-9.8099766 -19.534891 45.826916 0 4286614415 0
-23.044361 -7.5075974 28.145542 0 4285364350 0
-4.3195496 -13.849377 35.213528 0 4286877335 0
-28.519194 0.015739141 19.393568 0 4282074428 0
-28.646206 0.012586035 19.474224 0 4282074428 0
-21.793074 1.1373646 18.799187 0 4279310093 0
2.3661675 -6.5403104 30.662289 0 4281876269 0
0.046266295 -0.2872121 10.279967 0 4283961096 0
0.0046523153 -0.27144364 10.390635 0 4283961096 0
0.051329136 1.2071122 8.2402945 0 4280427818 0
0.051329136 1.2071122 8.2402945 0 4280427818 0
-17.083134 -10.569257 30.151297 0 4282927940 0
-26.575752 -4.2514906 23.443619 0 4281218866 0
-1.0604914 -2.1659992 6.0162745 0 4286677377 0
-16.723204 -9.3203297 30.387655 0 4284573539 0
-19.639711 -1.9596982 20.064964 0 4279048463 0
-1.3027153 -2.3845668 6.2783942 0 4278388224 0
-31.402643 -4.7457948 25.024586 0 4283585615 0
-2.3769622 -16.984642 40.772484 0 4284441179 0
-27.996725 -0.36274269 18.892994 0 4283980624 0
-28.698763 0.84237254 20.291431 0 4282664764 0
-0.22734074 -8.3705244 31.423164 0 4287930016 0
-4.1998334 -22.547171 49.859604 0 4278257154 0
-3.4947748 -20.289764 44.789536 0 4278257154 0
-0.77220494 -2.2136109 6.1033077 0 4278916365 0
-28.134605 -0.27590549 19.360165 0 4278257152 0
0.92291951 -7.2895432 31.030476 0 4286877579 0
-28.342028 -0.21670742 20.436836 0 4285100657 0
-9.6127672 -19.48876 45.33757 0 4284443764 0
-28.549393 0.041103058 18.638313 0 4284704096 0
-27.329254 1.0144271 17.685575 0 4283585607 0
-1.1302975 -1.5273794 6.2519979 0 4278585089 0
-27.864233 -1.7413956 21.149267 0 4278520576 0
-10.124624 -17.375845 40.841888 0 4284641403 0
-0.71697682 -0.98670512 7.4204855 0 4288784558 0
-28.186445 -5.1482534 24.952152 0 4287205526 0
-19.853361 -1.5456954 21.64263 0 4278257152 0
-26.540676 2.2585199 18.273729 0 4286547331 0
-26.36952 -0.16452201 20.323389 0 4285693053 0
-1.6398453 -0.640104 6.6632085 0 4287335818 0
-17.671022 -2.6927795 20.552052 0 4278784776 0
-0.92465395 -1.9925041 5.7559109 0 4285495413 0
-1.7386954 0.39497498 8.4053488 0 4286403351 0
-3.4152861 -0.11300843 9.6521502 0 4279763971 0
1.2665937 16.568205 0.75957835 0 4288784285 0
-0.22843751 16.76951 0.73118353 0 4288389527 0
25.245817 19.126448 -7.0019789 0 4282663477 0
-0.79949039 0.52083158 7.5005264 0 4280028937 0
12.519057 13.139606 4.786653 0 4286151285 0
3.1122882 16.951241 0.61630028 0 4292338147 0
3.1122882 16.951241 0.61630028 0 4292338147 0
0.91567153 8.1381559 10.691811 0 4283520592 0
1.4144816 5.6881685 14.329023 0 4281874476 0
-1.4615799 6.0528588 12.267009 0 4281677612 0
26.596693 8.6554937 3.5355711 0 4279642944 0
27.006485 22.894934 -6.9105687 0 4286219138 0
23.002937 13.704927 4.0052781 0 4280954150 0
12.875738 13.706623 4.7003541 0 4282795842 0
-0.74663836 1.4801519 7.6118712 0 4291548381 0
-1.6572629 0.45505485 8.5107574 0 4284689922 0
2.7818682 16.649633 0.7443102 0 4288327089 0
2.4405894 16.138039 0.80678493 0 4287932323 0
0.45390093 16.267761 0.78796434 0 4289442993 0
0.21696153 16.306835 0.78646547 0 4288915871 0
33.062607 16.725163 -7.2241268 0 4284242501 0
32.598969 16.875843 -6.8831873 0 4284374347 0
42.562878 16.431757 4.4592533 0 4280561449 0
25.607878 22.425539 -11.339997 0 4286218358 0
-1.3372996 -1.6015224 7.2393951 0 4286941058 0
22.668447 14.286736 4.485991 0 4282467128 0
21.848064 21.286575 -4.7310491 0 4284639326 0
-1.1331624 0.046138246 7.3929701 0 4280094720 0
-1.3019658 0.31637588 8.7931862 0 4292582710 0
-1.0338992 5.1821356 11.763844 0 4288191125 0
27.379248 -3.5074236 21.489458 0 4285889906 0
39.629925 37.561253 -24.148489 0 4278850051 0
23.090576 14.402262 4.0694227 0 4281085736 0
24.686258 25.596292 -9.1166582 0 4285231976 0
12.086788 20.038298 -4.9886923 0 4280165398 0
0.72078121 5.7157302 13.680048 0 4286743419 0
-1.0173007 5.5921378 11.400273 0 4290231228 0
64.65979 18.504475 10.050055 0 4287470240 0
-1.1762394 -1.5322151 6.2716918 0 4278914816 0
20.282953 18.355431 -8.5743074 0 4286349426 0
20.024269 18.177658 -8.4742432 0 4286349426 0
38.814644 38.09898 -24.668705 0 4281214216 0
33.428413 35.308071 -22.290419 0 4284244564 0
-1.9209427 1.2026125 8.1297016 0 4278782208 0
-2.64924 -0.378216 10.191458 0 4287236866 0
23.553743 0.24892209 22.205755 0 4279441160 0
19.054655 12.52632 1.7759914 0 4286349952 0
25.383547 24.961685 -9.9540787 0 4283060292 0
27.432833 19.514696 1.5298662 0 4285033061 0
19.351349 20.356846 -6.5550523 0 4287008133 0
19.351349 20.356846 -6.5550523 0 4287008133 0
13.558389 20.945612 -5.6062894 0 4286087285 0
23.007877 21.002169 -6.3878946 0 4286680196 0
25.584414 20.602724 -2.2227197 0 4288060311 0
12.557888 13.7712 3.5981023 0 4280032787 0
12.489411 14.119062 4.3126478 0 4282926396 0
12.443427 22.417435 -4.2381644 0 4286678137 0
1.1816545 5.2974868 14.382092 0 4281941559 0
57.532951 18.45224 3.1786227 0 4278388737 0
21.38427 10.356484 1.3577533 0 4282467385 0
-1.6951973 0.25732434 8.4446535 0 4288437252 0
33.965656 12.401364 3.3653824 0 4287074445 0
26.056845 18.813553 -4.9886928 0 4284176716 0
26.056845 18.813553 -4.9886928 0 4284176716 0
22.779358 21.413399 -4.4922609 0 4280560411 0
30.583403 29.930401 -15.912292 0 4285956215 0
-0.76162648 -2.1169224 5.9681768 0 4284771425 0
14.336299 -2.8784287 25.274689 0 4286152311 0
-0.32877988 -1.5017467 15.426795 0 4285999902 0
-0.73128194 1.175754 7.7290063 0 4293834579 0
-0.59257638 -0.23439856 7.3857775 0 4286847501 0
-3.9776635 1.6857202 7.5109191 0 4288375148 0
38.850376 -9.2200003 33.630974 0 4286216818 0
-4.2331738 1.5673232 7.6872778 0 4288896351 0
-1.4449466 5.3661013 11.776449 0 4289308584 0
4.5469899 -17.792692 42.060604 0 4280422914 0
-0.87351149 -2.1616125 6.0296369 0 4285034092 0
-4.4102001 1.7546639 7.4026737 0 4287777868 0
-3.951597 1.4443132 7.9888673 0 4281926144 0
19.661304 -7.9868441 28.335484 0 4281085483 0
-17.693039 -9.5438824 30.035402 0 4280756769 0
-11.243865 -11.250316 30.47492 0 4284443236 0
-25.490377 -1.8228379 18.532595 0 4281938466 0
-11.173152 -9.6798992 31.347813 0 4281611827 0
-11.212446 -9.6967506 31.428562 0 4281020711 0
-6.6922894 -14.116602 38.945251 0 4286944651 0
0.28656185 -7.2370443 30.605675 0 4287863442 0
-0.93751746 -0.82815355 7.5742602 0 4282920210 0
1.5047681 -6.6240301 30.388853 0 4285823081 0
-1.1100062 0.5345881 7.6544652 0 4279634944 0
-10.535971 -13.060696 31.008924 0 4282928464 0
-14.876436 -10.076779 30.147871 0 4279111685 0
-8.6487322 -16.950989 43.832092 0 4283916129 0
1.947546 -6.9760675 30.829756 0 4278322177 0
-0.6969915 0.11724079 7.9822688 0 4287522604 0
-13.949216 7.0167422 11.996159 0 4285231210 0
-13.949216 7.0167422 11.996159 0 4285231210 0
-11.353543 -22.051863 48.957199 0 4279452521 0
-16.404093 -11.001867 32.346901 0 4283121710 0
-10.39614 -18.576687 45.378712 0 4285693051 0
-25.241365 -3.417856 22.783129 0 4280824108 0
-8.4025192 -18.415133 45.306133 0 4282797382 0
-28.224844 -1.4688699 20.889908 0 4279573271 0
-0.8096 -2.0866337 6.5051732 0 4284245356 0
-30.254185 0.85621369 18.060959 0 4278725412 0
-0.26109803 -8.5874176 31.293236 0 4278914054 0
-14.151456 7.1573715 11.743777 0 4284705379 0
-14.151456 7.1573715 11.743777 0 4284705379 0
-14.171259 -22.055555 49.220726 0 4278257665 0
-11.482081 -22.209064 49.348248 0 4279583337 0
-19.744768 -12.974853 35.557556 0 4282335801 0
-26.92943 -1.0114281 18.72064 0 4282661409 0
-30.455713 1.1912416 17.876228 0 4279318579 0
0.064019226 -6.3581562 30.584003 0 4285560175 0
1.8401551 -6.2927527 30.236168 0 4281810740 0
-26.957039 -2.6837668 21.542578 0 4281677358 0
-13.299465 -7.0096407 29.480072 0 4278784525 0
-0.83943778 -2.2989383 6.1177154 0 4288061088 0
-27.264244 -1.1924037 20.228994 0 4280953889 0
-3.7472899 2.7551906 6.0426645 0 4287630086 0
-23.487568 -5.8142791 23.355574 0 4285559672 0
-28.134043 -0.12430596 19.531969 0 4278387970 0
-28.032988 0.57012916 16.79484 0 4278858541 0
-28.956406 2.2319484 16.262121 0 4285366145 0
-27.600218 3.0181475 16.321016 0 4285298798 0
-17.523661 -9.5866756 29.855879 0 4278981387 0
-10.780666 -19.165466 45.796299 0 4284772213 0
-11.648923 -17.321167 42.964863 0 4283062363 0
-20.576996 -6.6872067 28.507324 0 4284507748 0
-11.061323 -7.6540418 30.72341 0 4279112974 0
0.17801745 -6.9376287 30.887102 0 4281612330 0
0.16838382 -6.952775 30.983599 0 4280954146 0
-2.5044429 1.7261922 7.4303718 0 4284878085 0
-1.5960164 1.9005709 7.2346568 0 4284352256 0
-10.260137 -12.853499 30.945358 0 4282732366 0
-11.006002 -19.663235 46.601612 0 4281613374 0
-1.5347047 -1.4380931 6.4803042 0 4281146880 0
-7.7821584 -7.8469019 31.294691 0 4283521105 0
-11.837321 -11.187239 30.592552 0 4282599749 0
-27.457907 2.2302287 16.653736 0 4287140500 0
-12.836066 -7.946281 30.301519 0 4280429604 0
-28.144463 4.7265854 14.382672 0 4284572252 0
-25.566378 -5.6960955 24.717129 0 4282336577 0
-14.313852 -8.2647381 31.226566 0 4279637775 0
-26.436356 0.76687866 19.285826 0 4281612080 0
-14.688012 -3.7257814 25.538685 0 4287797146 0
-31.653194 2.7115951 15.49934 0 4278195469 0
-4.3250985 -14.636285 35.955513 0 4280495394 0
-18.512205 -5.3714905 25.006958 0 4280758826 0
-13.601018 -7.4780455 30.326151 0 4279638290 0
-1.0141956 0.36135373 7.4896793 0 4279109376 0
1.2970982 -0.32290152 10.54421 0 4289009679 0
-1.2115837 -1.1310345 6.284132 0 4289095432 0
0.42123783 -7.0499473 30.675682 0 4278454784 0
-15.203906 -11.186873 32.248314 0 4280627755 0
-15.134569 -11.168383 32.174023 0 4280627755 0
-5.4553952 -17.257631 43.873138 0 4287074958 0
-0.67388302 0.40295607 8.3119745 0 4281151016 0
-27.109003 1.7651076 16.401241 0 4280496936 0
0.49095482 -7.1539865 31.09367 0 4278323457 0
-0.55697125 0.71138525 8.8367815 0 4280031498 0
-13.221528 -9.8188705 30.337296 0 4278913024 0
-26.924492 -1.0978115 21.700069 0 4285824639 0
-1.0142314 -0.61183381 7.2265835 0 4278585090 0
-1.1092755 -2.3047447 6.4134312 0 4279244310 0
-25.815134 -0.073503971 21.217741 0 4289509056 0
-12.652935 -9.5035114 30.682663 0 4286415743 0
-28.567663 4.8726912 14.410289 0 4287794818 0
-7.7815509 -10.38113 34.49334 0 4285561208 0
-7.9257374 -10.131664 34.196201 0 4286811796 0
-0.065187573 0.46914443 8.8762693 0 4281612856 0
-15.597504 -7.6186399 30.134298 0 4280032785 0
-6.1283569 -8.0347977 30.388874 0 4284181095 0
-14.72041 7.6512575 10.746967 0 4284179802 0
-14.72041 7.6512575 10.746967 0 4284179802 0
-1.1806828 1.9486908 7.1560364 0 4288050005 0
-15.646276 -12.486423 30.691681 0 4280757798 0
-12.922526 -12.430355 29.638683 0 4283191110 0
-12.928534 -12.437343 29.658648 0 4283191110 0
-17.877987 -12.964512 33.49836 0 4282204215 0
-14.296565 -22.561764 49.627392 0 4282541184 0
-16.090755 -8.0616741 29.924152 0 4279639569 0
-27.393883 3.7905178 15.248724 0 4285098596 0
-13.466568 -8.4265652 31.214003 0 4280565060 0
-27.073051 5.520092 13.18689 0 4286282880 0
-7.8666081 -9.4050713 32.900211 0 4281089853 0
-6.6961832 -7.8591461 29.94248 0 4283851358 0
-14.917846 7.687686 10.971438 0 4284112463 0
-14.917846 7.687686 10.971438 0 4284112463 0
-11.727608 -12.940706 28.806847 0 4278323712 0
-27.882587 5.4647965 13.163585 0 4286350471 0
-5.8042359 -8.5676641 32.193275 0 4284969321 0
-3.6199682 2.9533587 5.9089775 0 4288386956 0
-27.519815 -3.3930619 20.557461 0 4283390296 0
-16.445499 -9.4440908 30.056181 0 4279836697 0
-28.695581 4.2198052 13.946599 0 4287335808 0
-6.1516852 -7.6000857 30.206633 0 4285825415 0
-0.65644193 1.4089779 7.6679487 0 4280493338 0
-23.184738 -7.2068233 24.854265 0 4283121182 0
-24.219032 -13.22363 36.256817 0 4282731842 0
-28.735085 3.7599933 13.261026 0 4281151779 0
-0.82852048 -1.5322688 7.1221056 0 4279899918 0
-0.38187912 0.63047242 8.3928785 0 4292646921 0
-26.88484 -0.37174371 17.153219 0 4280688137 0
-1.0583301 0.32064936 7.4478531 0 4278980097 0
-16.749397 -12.997583 31.587585 0 4280889125 0
-21.030918 -6.4918952 27.813725 0 4283718737 0
-16.358107 -8.8252525 29.549524 0 4282073148 0
-18.739159 -7.8133264 30.754829 0 4282270784 0
-14.732493 -5.6917558 27.956268 0 4284509029 0
-13.471182 -6.0761051 28.884441 0 4278719237 0
-6.2312474 -8.2864761 30.397057 0 4282141762 0
-6.319766 -8.1266184 30.332041 0 4281351218 0
-6.2317033 -6.9814487 30.660666 0 4281810487 0
-1.1391797 0.57577914 9.0520487 0 4279375391 0
-0.81805062 0.61562663 8.9315748 0 4291547864 0
-0.71341109 0.64151442 8.973176 0 4293323759 0
0.034359869 0.78171736 8.2246017 0 4288573741 0
0.99021816 0.41371745 9.3566256 0 4293323501 0
1.4002385 0.51658487 9.2243977 0 4288905061 0
1.6995908 0.17120036 10.304291 0 4285927435 0
-29.416815 6.9873533 10.551719 0 4282139452 0
-16.468824 -8.5658693 31.948929 0 4281217836 0
-13.989625 -7.8349819 30.991859 0 4279639318 0
-0.096799508 -0.39242879 10.417 0 4289017391 0
1.2926639 0.78116006 8.8394423 0 4288904801 0
1.8712225 0.68461585 9.0775089 0 4290067248 0
0.75083166 2.2247949 6.954843 0 4282977024 0
-26.012712 -5.2306304 23.736765 0 4284508013 0
-12.21969 -13.055987 28.86515 0 4279243779 0
-29.330549 -4.5745254 25.484055 0 4281086512 0
-16.783516 -9.3048506 30.144548 0 4281217836 0
-15.280342 -10.539708 31.66675 0 4282529318 0
-12.149036 -9.403863 30.790339 0 4285889920 0
-14.492 -5.4887843 28.100613 0 4285165676 0
-13.446727 -6.6184325 29.308519 0 4278194179 0
-25.331223 -15.594618 38.738365 0 4281941043 0
-24.656574 -15.346068 37.970066 0 4281350440 0
-27.032434 -4.0054994 23.544462 0 4280954665 0
-21.632755 -7.0170374 27.82765 0 4288195242 0
-17.926289 -5.3786397 27.234465 0 4283459187 0
-2.9221585 1.5178801 7.6350894 0 4279967769 0
-2.9221585 1.5178801 7.6350894 0 4279967769 0
-2.6795447 1.5618975 7.596303 0 4279704598 0
-2.6999776 1.5688908 7.6045141 0 4279704598 0
-1.8845533 0.99984348 8.0963135 0 4291087317 0
-0.54478484 0.58921534 8.5678139 0 4280096010 0
-0.61176717 1.4010432 7.6577382 0 4280493338 0
0.98278457 1.5528799 7.8017378 0 4288839780 0
-1.9516414 5.0796442 8.3912802 0 4286941830 0
-27.858046 -2.654145 20.890471 0 4293459967 0
-19.757046 -6.3868847 25.47471 0 4286877327 0
-7.1079969 -6.9401422 30.037947 0 4287798429 0
-1.0979987 0.15960412 7.3829198 0 4289358606 0
-0.77966481 1.5877753 7.6759024 0 4291219674 0
0.33595157 0.33975393 9.4899254 0 4293652726 0
-1.3949676 3.0767972 5.6535983 0 4285403655 0
-11.343213 -12.62117 28.658819 0 4284113242 0
-14.962209 -8.6745529 31.269131 0 4279243528 0
-6.4475613 -7.2150373 31.114616 0 4282864202 0
-0.94048095 0.20547235 8.5418587 0 4292057364 0
-0.94046021 0.65287811 8.9624043 0 4291350747 0
-1.6810328 3.1938276 5.6745148 0 4286060045 0
-24.635796 -2.8984194 20.371923 0 4285429628 0
-19.912836 -1.7647591 20.625826 0 4286086529 0
-10.877701 -10.729051 32.734158 0 4284509290 0
-26.400789 -3.3990862 23.398621 0 4278389250 0
-1.1836531 1.0595254 7.6940184 0 4289440945 0
-22.952105 -5.4404926 24.002151 0 4278328634 0
-4.0567889 -18.641983 42.164623 0 4283126867 0
-0.79909593 -1.6595517 6.7958994 0 4291462930 0
0.81377375 0.59338361 9.141511 0 4293061103 0
-1.4419612 -0.46781364 7.4996576 0 4278847748 0
-22.781433 -7.9260249 28.457464 0 4279443219 0
-22.781433 -7.9260249 28.457464 0 4279443219 0
-22.296812 -7.5406318 28.253584 0 4285495411 0
-19.981243 -7.3128653 29.897346 0 4282402624 0
-1.0335443 -1.669793 7.1921821 0 4282726689 0
-20.565435 9.6700735 8.0676031 0 4286812564 0
-0.69745612 0.40932217 7.469018 0 4279632640 0
0.67053676 0.35512435 9.3425522 0 4291085770 0
0.83627635 1.9859759 7.2944927 0 4281926400 0
-19.001175 -13.787052 32.218258 0 4283914584 0
-17.251257 -6.9867063 28.86372 0 4284640356 0
-0.51905149 0.69097376 8.8977842 0 4279771179 0
0.80098826 2.0793076 7.1533213 0 4281139200 0
-22.240534 -16.213873 36.741486 0 4283982172 0
-12.985726 -13.379811 28.449621 0 4278391317 0
-17.335098 -13.294706 30.444559 0 4280164630 0
-15.975133 -11.076135 31.820282 0 4279506183 0
-16.289423 -8.2955542 29.923943 0 4280823592 0
-10.809409 9.7825813 8.1730022 0 4285297002 0
-10.809409 9.7825813 8.1730022 0 4285297002 0
-0.28079841 0.56310803 9.0946503 0 4281612856 0
-27.187841 -5.1416273 23.187569 0 4286679695 0
-12.84349 -13.206838 29.035406 0 4279507983 0
-19.363979 -3.9518287 20.177561 0 4284639332 0
-20.676815 -6.0903563 28.416275 0 4285561204 0
-0.14420955 0.97072977 8.0560312 0 4280549888 0
-14.439765 -13.474026 28.945566 0 4281350967 0
-1.5122601 -1.6343412 6.281219 0 4279437314 0
-20.902802 -4.4771204 22.972044 0 4283521633 0
-25.831989 -15.603563 38.451145 0 4278454016 0
0.017602848 1.6847463 7.3697495 0 4293193463 0
-19.254799 -3.6422009 20.492998 0 4278388737 0
-19.763006 -3.663954 20.857365 0 4278388740 0
-12.50151 -13.36885 28.556051 0 4284572763 0
-24.995089 -15.134639 38.159622 0 4280494365 0
-20.031002 3.585511 14.729487 0 4287401876 0
-1.054968 -0.41216671 10.637389 0 4287760132 0
-1.054968 -0.41216671 10.637389 0 4287760132 0
-16.958595 -10.190558 30.334858 0 4278191872 0
-14.591029 -4.5373621 26.100832 0 4281941310 0
-13.598563 -6.586431 29.164494 0 4279509798 0
-1.0960745 -0.73269153 7.7308521 0 4289437854 0
-9.3136091 11.235165 6.334096 0 4285231212 0
-9.3136091 11.235165 6.334096 0 4285231212 0
0.56078058 0.30958089 9.2012873 0 4279112219 0
-21.377325 -1.9334409 20.769432 0 4285099887 0
-21.218384 -1.9447465 20.699902 0 4280956207 0
-12.80237 -7.5417895 29.814356 0 4281886336 0
-1.0423807 -0.62733388 7.7249599 0 4289158418 0
-21.421484 -3.4563608 19.5345 0 4281811003 0
-19.094172 -3.8914523 20.990208 0 4278719245 0
-17.352291 -9.9336042 32.152618 0 4278322944 0
-11.878772 -9.3751926 30.822472 0 4283851101 0
-15.8314 -8.6615038 31.844122 0 4282995014 0
-14.343829 -8.036438 31.150928 0 4283848781 0
-13.484006 -6.6262441 29.344515 0 4278194179 0
-15.435726 -8.7766476 31.301517 0 4278717956 0
-2.2387798 1.6565276 7.5389271 0 4279835932 0
-32.722008 -7.3070092 27.422001 0 4278256384 0
-1.312144 -0.79939526 7.8865714 0 4287928220 0
-28.95952 -4.7903156 22.23954 0 4283190340 0
-25.756317 0.31667894 20.217747 0 4283916391 0
-24.469425 -0.62959731 21.105017 0 4292140767 0
-0.87906909 0.23986797 7.4370894 0 4284494336 0
-27.127848 -2.92451 20.61434 0 4283257419 0
-23.045492 -4.6577034 24.878904 0 4278258185 0
-21.466833 -7.4535375 28.370817 0 4286153343 0
-22.375244 -6.5139227 28.306805 0 4283849816 0
-14.765547 -9.9615278 29.707369 0 4278521088 0
-0.44671294 0.77347255 8.4795055 0 4280619270 0
-9.4103603 11.490493 6.3248067 0 4284772201 0
-9.4103603 11.490493 6.3248067 0 4284772201 0
-25.257956 -5.1878467 23.716402 0 4286943120 0
-22.70018 -6.5880227 28.17717 0 4278586881 0
-15.410688 -10.00854 29.953484 0 4281939752 0
-15.933021 -7.9717336 29.939787 0 4279508502 0
-23.584778 -5.5163341 23.35359 0 4281744434 0
-16.401655 -9.4245949 30.015249 0 4278980358 0
-0.90586215 -0.76013416 7.6697845 0 4287991428 0
-3.5834529 2.9029081 5.8917227 0 4287994779 0
-0.90654516 0.53226167 8.8735781 0 4291350487 0
-0.90654516 0.53226167 8.8735781 0 4291350487 0
-0.079054676 1.5964286 7.7223945 0 4279506199 0
-31.878603 -7.588325 27.719332 0 4278387457 0
-29.383522 -4.9100385 24.755716 0 4278586629 0
-28.739225 -0.56502724 18.839209 0 4282067729 0
-20.099112 -10.81807 32.297211 0 4284443238 0
-16.537706 -8.9664278 30.294844 0 4284770661 0
-1.5760074 1.0473268 7.8778996 0 4279309064 0
-0.76216084 0.58734655 8.5610886 0 4292646921 0
-0.72863317 0.54393989 8.5340242 0 4292384009 0
-15.340278 -4.4817543 26.025097 0 4278651912 0
-15.440347 -6.6732097 30.625698 0 4283258451 0
-1.968047 -0.20780712 9.1955357 0 4293193204 0
0.35838971 2.8750105 6.35953 0 4287600017 0
-13.996659 -6.4266672 29.313557 0 4285231210 0
0.41224009 -0.63216227 10.688745 0 4289742139 0
-6.2275338 1.6483309 19.822193 0 4286940547 0
-6.2275338 1.6483309 19.822193 0 4286940547 0
-6.2925067 1.9294137 19.553223 0 4286678404 0
-6.2925067 1.9294137 19.553223 0 4286678404 0
-15.309224 -4.6957192 26.387423 0 4278848772 0
-28.352707 -2.824903 21.275835 0 4281019688 0
-1.1916599 0.012938099 7.2486095 0 4289560421 0
-19.390543 -3.81704 19.93207 0 4280295965 0
-0.77431357 -1.1480296 7.1814127 0 4279175936 0
-28.989038 -6.5607672 26.359259 0 4278586368 0
-27.378046 1.0205008 17.708654 0 4284308051 0
-0.39022911 0.85046315 8.5371809 0 4281282862 0
-28.883732 -0.57291329 17.848904 0 4279835406 0
-0.90977061 -0.039622098 7.3167548 0 4279045379 0
-27.493656 -5.0472522 25.07992 0 4285626231 0
-0.63559926 -0.40214837 10.575535 0 4288350725 0
-22.453012 -8.9028854 21.16013 0 4281876280 0
-22.210939 -7.9992971 28.067459 0 4284640866 0
-18.989502 -5.5165224 25.296671 0 4281152295 0
-19.441275 -1.5942674 22.927437 0 4281415479 0
-16.753923 -5.6387691 26.936584 0 4281020192 0
-15.463587 -4.7958522 26.761715 0 4279112710 0
-12.759205 0.82347542 20.093342 0 4286283128 0
-1.0868987 0.23953438 8.5967855 0 4281276935 0
0.28914773 -0.79186887 10.886246 0 4291907908 0
0.28914773 -0.79186887 10.886246 0 4291907908 0
0.61475617 0.2492042 9.24681 0 4287008924 0
0.67443073 0.027109521 9.5939503 0 4290491839 0
-23.104536 -9.2372303 21.784275 0 4280100890 0
-23.379683 -9.1144428 21.94179 0 4285889919 0
-27.743689 -5.2415624 23.128212 0 4286152314 0
-30.008099 -5.8977165 25.077627 0 4280165915 0
-27.003519 -5.1186123 22.850719 0 4281152810 0
-22.942232 -5.3669715 23.502949 0 4278657078 0
-23.14757 -8.2339239 28.258671 0 4288653986 0
-1.3070959 -0.099706538 8.223052 0 4293192693 0
-1.5095649 0.35812923 8.8298445 0 4294046719 0
-1.4968606 3.0507338 5.6538477 0 4285600780 0
0.59703803 0.037555005 9.4785872 0 4293704381 0
0.74497813 2.2155247 7.0148001 0 4281796608 0
-28.210678 -0.68770832 20.047409 0 4281348385 0
-24.100695 -6.5265875 27.043003 0 4281284394 0
-23.015928 -4.8687253 25.176327 0 4283454798 0
-1.3427124 0.29863036 8.833931 0 4291532334 0
-0.064525634 0.90321642 8.0220222 0 4279700992 0
-34.614098 1.5175281 15.883474 0 4280100898 0
-36.771992 -5.8093762 26.736076 0 4279768585 0
-27.114508 -2.7365961 21.552067 0 4282536017 0
-26.232538 -2.9324317 21.446783 0 4281941045 0
-25.193739 -2.7475135 20.796946 0 4286613126 0
-25.677887 -4.0121722 23.27313 0 4284178522 0
-24.376495 -7.0784035 27.639082 0 4288456870 0
0.28173104 0.52796173 9.1687441 0 4280429100 0
-25.303926 -4.6544104 20.992737 0 4280096519 0
-22.368582 -8.1108332 23.733425 0 4285231989 0
-23.495502 -8.9208755 21.990746 0 4285759607 0
-38.396145 1.9169216 15.676194 0 4284046421 0
-40.202671 2.7217073 16.071053 0 4287532684 0
-17.789495 -6.3185301 27.862823 0 4285562228 0
-17.789495 -6.3185301 27.862823 0 4285562228 0
-22.559702 -4.7639618 23.733065 0 4278460735 0
-28.134354 -4.082696 23.641382 0 4284968301 0
-20.817106 -6.4503007 27.980602 0 4278456064 0
-24.767309 -7.3222885 28.295084 0 4288589226 0
-30.708508 -5.5907121 24.028187 0 4281217318 0
-15.268492 -4.4816823 25.943375 0 4278191872 0
-33.077389 2.4180779 15.949446 0 4280174403 0
-1.5442936 -0.3275865 8.2359219 0 4293258999 0
-1.1012691 -0.60756463 7.2188878 0 4281669376 0
-18.820129 -4.9331117 23.620802 0 4278456065 0
-18.830528 -5.4978886 24.826902 0 4285100137 0
-12.617494 -0.45103127 21.748713 0 4286217078 0
1.3579563 2.4151642 6.8026609 0 4289675568 0
1.3579563 2.4151642 6.8026609 0 4289675568 0
-23.147701 -1.1962993 20.957502 0 4283850588 0
-1.7362638 0.38190144 8.7903509 0 4292995825 0
-21.155403 -6.3620839 27.866566 0 4278652674 0
-0.52578819 0.63164181 8.9180841 0 4291547864 0
-0.0044548362 -0.34526801 10.284418 0 4281991168 0
-20.184134 -8.6585741 20.104883 0 4281876280 0
-2.0834148 0.15385079 9.4055557 0 4279835934 0
-27.894604 -5.5696564 19.510021 0 4278978560 0
-31.743708 -7.8595037 28.407957 0 4278322432 0
-22.222956 -2.4918563 20.039021 0 4281744181 0
-24.276209 -5.847249 18.589396 0 4279043584 0
-24.463291 -8.861414 22.71941 0 4279308032 0
-18.694078 -5.8974414 23.554205 0 4285890690 0
-23.261368 -8.9948034 22.011658 0 4285429368 0
-27.268291 -1.0351309 16.104263 0 4284308819 0
-27.266125 -0.54595816 16.525631 0 4284045647 0
-20.139771 -5.8556948 26.121979 0 4286152825 0
-22.966957 -8.837491 21.044935 0 4286613642 0
-0.55767375 -18.351355 43.254566 0 4282074429 0
0.23782383 5.374577 13.205246 0 4288162078 0
-1.7332722 5.3188219 12.363428 0 4285429620 0
-2.3963046 5.7576299 14.450225 0 4285623911 0
-1.6093764 -17.602264 41.568661 0 4278785289 0
-0.54765475 -7.6176252 31.508087 0 4279769872 0
7.670012 6.5566149 14.306407 0 4289309356 0
-0.055751141 -20.158979 48.196754 0 4278192640 0
-0.73367345 -17.852633 43.211983 0 4282862915 0
-1.9025543 -17.590578 42.325153 0 4283061581 0
-4.6677136 0.52331662 9.0254164 0 4288717212 0
1.5364511 6.0746737 14.092695 0 4287532424 0
-1.0615606 -17.534744 42.779697 0 4278322944 0
-1.0744565 -17.433325 42.509811 0 4278520323 0
-1.6702476 0.26394898 8.1652632 0 4280030979 0
-3.0630069 4.9361148 14.227308 0 4291085506 0
-0.076615572 1.1146321 8.1464205 0 4292996336 0
1.4517337 3.1521826 6.1682611 0 4282451458 0
-2.4904459 5.7601743 15.969334 0 4289374377 0
5.7777381 -13.842261 38.10376 0 4278913025 0
-29.469578 -5.7162132 25.49719 0 4284309843 0
-0.84464753 -1.9931134 5.8269653 0 4284703579 0
-27.144243 -4.0096707 21.791649 0 4284442984 0
-22.851137 0.25686252 18.692995 0 4294376185 0
-19.473152 -4.1095357 21.653065 0 4280368171 0
-19.239712 -3.0600908 23.27981 0 4278922265 0
-18.686184 -1.5878217 22.548876 0 4287205261 0
-6.8926897 13.773053 4.2592211 0 4285099883 0
-6.8926897 13.773053 4.2592211 0 4285099883 0
-0.47551498 0.58577353 8.6253777 0 4281873183 0
-30.757193 -5.1753259 23.833374 0 4278847488 0
-27.272919 -4.141335 21.666149 0 4281744183 0
-23.612005 -1.1702576 21.62948 0 4290232519 0
-23.612005 -1.1702576 21.62948 0 4290232519 0
-32.673782 -5.734684 24.797485 0 4279047172 0
-0.25629392 0.78076649 7.9211183 0 4281612856 0
-28.923702 -8.718194 20.425013 0 4286218105 0
-29.008074 -4.5739293 23.628592 0 4284243800 0
-1.0609169 1.584824 7.5161834 0 4292272102 0
-1.2278876 -1.4022689 7.3084235 0 4287663496 0
-33.595493 -5.591692 22.137091 0 4278780928 0
-28.216784 -1.7100412 21.27282 0 4278718215 0
-30.590069 -8.8002949 20.380861 0 4278849538 0
-29.970961 -0.69128942 18.082659 0 4280832079 0
-25.090332 -4.6187477 23.91626 0 4285954165 0
-28.741251 -2.935112 18.951326 0 4280028928 0
-27.964621 -0.62444407 19.735332 0 4286021490 0
-27.964621 -0.62444407 19.735332 0 4286021490 0
-11.985025 16.699514 -0.32551837 0 4286413425 0
-26.48435 -3.090863 20.785646 0 4280363292 0
-5.4715405 12.598644 4.5188236 0 4285757813 0
-18.924456 -1.7949975 22.623627 0 4280692522 0
-28.96171 -0.88882256 20.755886 0 4282334259 0
0.027019076 0.61302257 8.8855467 0 4293852159 0
-26.532253 0.64620233 19.159456 0 4281083668 0
-0.95161712 2.3878345 6.3945413 0 4287628546 0
-1.5443095 -0.3435255 10.7514 0 4287825925 0
-23.348139 0.57102275 19.295813 0 4281415978 0
-27.499163 1.1604595 17.671049 0 4284571989 0
-27.425276 -2.6725199 15.292134 0 4280690453 0
-11.976372 16.687534 -0.31587526 0 4286413425 0
-13.360703 4.9651303 14.989429 0 4285624689 0
-13.334059 4.9343781 14.978974 0 4285624689 0
-0.26620564 0.96822715 7.9091411 0 4281151274 0
-25.228134 1.6065688 17.513374 0 4283980365 0
-2.6012621 0.72966981 8.7235889 0 4279901727 0
-0.9430989 0.27884448 8.5741653 0 4288765968 0
-0.83516097 0.36378247 7.4352531 0 4288350725 0
-14.417608 20.616812 -7.7033906 0 4286742895 0
-0.88687927 -0.99793756 7.4176588 0 4283643930 0
-0.58597195 0.60336351 8.6185827 0 4279243011 0
-2.7533672 1.1652166 8.0756083 0 4292403950 0
-1.0468999 -2.1657796 6.0708203 0 4283256143 0
-2.6345875 1.558154 7.5847907 0 4280889151 0
-0.56601697 0.60853541 8.5900383 0 4283124545 0
-0.56601697 0.60853541 8.5900383 0 4283124545 0
0.21733624 0.29726478 9.5727396 0 4288827478 0
-0.59176773 -1.9038105 6.1232257 0 4280294167 0
-1.5827721 -0.033204783 7.9535708 0 4291811298 0
-1.5409276 0.47811303 8.8507004 0 4279834893 0
-12.572211 25.538715 -11.426353 0 4286350974 0
-0.085557148 0.59129035 8.9831858 0 4284047464 0
-2.8606262 1.3529462 7.8327894 0 4282534223 0
-2.8606262 1.3529462 7.8327894 0 4282534223 0
-0.12652951 20.98097 -5.1095715 0 4288652458 0
0.70321679 1.0563016 6.9575062 0 4285544764 0
0.28951782 2.1571894 6.9992671 0 4292466658 0
-1.2240194 0.40411678 8.8986959 0 4281341952 0
0.70066816 0.29968637 9.2682743 0 4291680224 0
-1.2291005 0.29875198 8.7597494 0 4293308502 0
0.096392781 1.0281525 8.3105421 0 4284310896 0
-3.1374524 -0.37353793 10.014788 0 4292927461 0
-3.5670252 2.8340695 5.9148092 0 4288782755 0
0.2845611 2.1332221 7.0244331 0 4292205798 0
0.13846546 0.90943247 8.619153 0 4284573040 0
-0.68275875 0.075099126 7.9330654 0 4279306752 0
0.34922501 1.1872813 8.233839 0 4280164119 0
-0.96541536 -1.555138 6.8295674 0 4290673416 0
0.78002524 0.63082832 9.0151205 0 4292008164 0
-25.606863 14.272551 -1.0293881 0 4282007353 0
-0.56416112 -1.8642751 6.1233325 0 4289177259 0
-1.8292345 21.297335 -5.4912429 0 4288257697 0
-1.7794579 0.53090245 8.2039986 0 4288375326 0
-2.5803549 0.46274269 8.9303827 0 4292863986 0
-0.039225392 0.9508456 8.6175146 0 4285100152 0
1.6072518 3.0183067 6.1793656 0 4287171843 0
-0.87783235 -0.12051204 8.053091 0 4287254794 0
-1.2850058 -2.0726931 6.1621718 0 4278387968 0
-0.97652388 -1.896765 6.2503557 0 4278388737 0
0.33919984 1.309823 7.9305263 0 4292534510 0
-14.637683 23.092985 -9.5387573 0 4286676599 0
-1.0910257 -2.2183504 6.09303 0 4282795849 0
-0.96373641 -1.0824746 7.4399662 0 4283840791 0
-0.96972525 -1.0169863 7.472652 0 4283249426 0
-0.96392059 -1.0458881 7.4792943 0 4283249426 0
-0.95139229 -1.0776765 7.5340848 0 4284562968 0
-0.71129668 -0.072504386 7.5318413 0 4292272354 0
-0.3961134 1.1002978 7.7125025 0 4279508502 0
-1.486883 -2.0301256 6.6012349 0 4292582964 0
-0.80322248 0.21668561 7.495101 0 4280817926 0
-1.1586384 -1.9135023 8.0249386 0 4283246339 0
-24.960621 11.687742 -1.6340863 0 4279901462 0
-0.36668804 0.76140118 8.5648975 0 4278849802 0
-2.0149183 1.0469464 7.6956735 0 4280624930 0
-2.7103353 0.39341608 9.1280651 0 4280098841 0
-7.2654433 -9.7655191 33.95763 0 4288916910 0
-6.7758651 -7.9203396 30.113718 0 4283851358 0
-6.5204062 -7.8290544 30.379684 0 4279573776 0
7.5053782 6.5489311 14.430151 0 4289310635 0
-3.1044383 4.9046974 14.462735 0 4288981924 0
-2.3498688 -16.936962 41.632454 0 4283452483 0
1.286793 -20.704067 51.935535 0 4284365595 0
-2.7351925 5.7202444 14.337069 0 4285690484 0
-3.651562 4.5810895 14.032219 0 4282335031 0
-3.4639742 4.341588 13.874117 0 4281729792 0
-14.32206 21.434649 -8.965023 0 4283254334 0
-14.413698 19.208811 -7.2963586 0 4279177475 0
-12.185 22.682898 -8.1886082 0 4281282090 0
0.7427516 0.80594832 8.7510805 0 4292008679 0
-1.0882953 -1.4281006 6.829721 0 4289883648 0
1.6130027 2.7216971 7.1198654 0 4287238409 0
-1.0933077 -2.2289042 6.0968456 0 4282795849 0
-23.807487 19.692945 -6.7318115 0 4278191620 0
-5.6814127 19.428673 -3.8704841 0 4288914852 0
1.8715557 0.67885566 9.0836344 0 4287506717 0
1.1835186 0.36156306 9.3303108 0 4286736978 0
-2.2525268 0.17619088 9.3453484 0 4281348657 0
-5.9736977 20.182159 -4.4747453 0 4290561222 0
0.81963849 0.30932871 9.4184256 0 4286343512 0
1.2240344 8.3192663 10.848649 0 4288257436 0
9.5193377 12.980936 2.1887667 0 4284114269 0
9.5193377 12.980936 2.1887667 0 4284114269 0
9.2484312 14.239599 1.7326251 0 4287995295 0
9.2484312 14.239599 1.7326251 0 4287995295 0
-3.7478452 0.48134834 8.597599 0 4284290827 0
-2.6022022 0.65771222 8.6598825 0 4292535023 0
9.5411243 13.649768 1.9962039 0 4284244065 0
-1.9751976 1.581014 7.5112071 0 4284836982 0
0.36931041 1.2314973 8.2126751 0 4280033824 0
-1.3905613 -2.2159491 6.1204066 0 4288453788 0
9.3036585 12.797047 1.8005986 0 4278717186 0
9.3036585 12.797047 1.8005986 0 4278717186 0
9.4739065 13.563597 2.9898455 0 4279441677 0
9.513958 12.869886 2.0026083 0 4278519809 0
9.4484253 13.851462 2.3600743 0 4282270008 0
-1.7332209 0.75403416 8.10886 0 4290485096 0
12.082687 21.357325 -4.3500323 0 4288257440 0
-1.2144296 1.927986 7.5867591 0 4283519574 0
1.1193801 0.61525178 8.7315922 0 4287169795 0
-1.3933688 -0.034739017 6.9303493 0 4289309873 0
0.22972499 0.7407068 8.5759373 0 4293061365 0
-4.8644357 7.7303023 10.155208 0 4293915898 0
-4.8644357 7.7303023 10.155208 0 4293915898 0
-1.949775 -0.030925991 9.9778738 0 4288313955 0
-4.5491867 0.5089156 9.0801497 0 4291788420 0
-3.6301494 0.32516873 9.4402752 0 4288428601 0
-3.0165341 0.61312413 9.0411053 0 4292798193 0
-5.3233385 13.010714 4.643177 0 4292798448 0
-5.2869425 13.4664 4.5411429 0 4292204765 0
-5.2977924 11.002948 6.301569 0 4292271587 0
-5.2233438 10.445434 6.9745021 0 4291021522 0
-5.1927309 10.997348 7.0262957 0 4291481557 0
-5.1352677 10.453298 7.1560612 0 4287928222 0
-4.923274 9.5342846 9.4127731 0 4293191921 0
-6.4061084 15.819362 3.9537532 0 4288519840 0
-5.1698179 12.703566 5.2233682 0 4287667879 0
-5.1261444 12.275832 6.0233574 0 4289902014 0
-5.2264566 10.924983 6.7245879 0 4292402405 0
-5.1622257 10.542423 7.3459253 0 4290954700 0
-5.2957325 11.031604 6.452177 0 4291810522 0
-2.7948484 -0.44566259 10.115336 0 4282058240 0
0.18179224 0.76473695 8.7634897 0 4293061877 0
-5.1378465 12.712311 5.3897204 0 4287337114 0
-5.0855207 12.176038 6.3924417 0 4286744975 0
-3.0531685 -0.41324681 10.08405 0 4292663776 0
-3.919646 7.7731638 10.562346 0 4281545264 0
-4.0198884 8.8533039 10.298751 0 4286677638 0
-1.2817702 0.11884263 9.5425272 0 4291087064 0
-3.6307454 6.8568916 10.093251 0 4286545791 0
8.5623093 24.531372 -9.5512667 0 4286810503 0
9.3896456 14.6608 4.1171832 0 4287665563 0
-2.2589896 -0.97882271 11.092762 0 4287187776 0
-3.9252379 8.5094252 10.984344 0 4286348921 0
-4.8184395 0.97548354 8.396409 0 4286656808 0
9.0792274 25.184843 -9.7307034 0 4280822829 0
-3.7533083 6.8115149 10.033966 0 4281282349 0
-0.5147351 0.025879376 7.7549376 0 4288510558 0
-1.9633358 8.1467886 11.706975 0 4286282621 0
0.59743887 0.35279998 9.1030531 0 4278913803 0
0.71029055 0.36812112 9.2522802 0 4290159780 0
1.5061562 5.4918699 14.592122 0 4291219655 0
1.4313729 5.4200721 14.125892 0 4291219655 0
-3.997839 5.697782 14.767166 0 4285295724 0
8.3926897 6.6479349 14.60956 0 4289441196 0
-3.6269915 4.8590994 14.223345 0 4279901712 0
-1.6453291 5.7250676 11.708629 0 4288322715 0
-9.7095585 -13.048186 32.740879 0 4280100636 0
9.5817976 6.7850571 14.678902 0 4289178022 0
9.5894117 6.7916813 14.693027 0 4289178022 0
4.2996397 6.0094934 15.039089 0 4285098597 0
4.306097 6.011435 15.065069 0 4285098597 0
1.1130317 5.8249068 14.294923 0 4280822564 0
-3.3105218 5.4330192 14.476063 0 4279703822 0
-2.9862037 5.5868425 14.530564 0 4289638062 0
-2.7001498 5.841167 14.427865 0 4291283149 0
8.8947697 6.7094684 14.648517 0 4289506987 0
1.2191443 5.2603908 14.303573 0 4280560160 0
1.2191443 5.2603908 14.303573 0 4280560160 0
-3.0673666 4.9477348 14.253067 0 4287731092 0
-3.6615961 5.3069158 14.65414 0 4285690993 0
-0.90066904 5.7880793 11.749052 0 4290757056 0
-3.9046469 5.8674121 14.995485 0 4288849059 0
-2.9857068 6.0999546 14.806137 0 4290428091 0
-1.1085484 -16.054871 40.469685 0 4286006044 0
-3.5282314 5.7144537 15.01426 0 4281413410 0
-2.8620028 5.882381 14.734765 0 4291020493 0
-1.5104587 5.7666249 11.684818 0 4281743666 0
23.882292 -1.1404495 24.171011 0 4280098839 0
24.002539 -1.1571425 24.287998 0 4280098839 0
19.2703 -4.9339509 27.561737 0 4286941828 0
1.1265991 5.4008522 14.423048 0 4282137909 0
-2.1610882 5.840477 14.457409 0 4290756804 0
-3.6956444 5.3176174 14.137008 0 4289375921 0
24.606873 -0.3654764 24.895132 0 4278387968 0
27.667671 -2.587781 24.92548 0 4284443228 0
27.667671 -2.587781 24.92548 0 4284443228 0
-0.91602349 -0.15690461 7.298954 0 4278979586 0
1.323061 5.7896314 14.379896 0 4282530860 0
-1.8627799 0.30780292 7.7733965 0 4293325050 0
-3.3232639 5.7660656 14.860685 0 4281149977 0
-1.2961504 2.281199 8.8526678 0 4287301121 0
-3.0975432 4.488276 13.403226 0 4281338626 0
-2.6208205 5.8259406 14.683204 0 4291085256 0
-0.13023448 6.487268 10.921593 0 4285692790 0
-0.31089348 5.6099639 12.554421 0 4287204234 0
-1.4947882 6.1964765 11.726889 0 4288192408 0
9.9501867 6.7708373 14.460827 0 4289112996 0
-8.3728151 4.4705014 15.63173 0 4284574046 0
-8.3728151 4.4705014 15.63173 0 4284574046 0
-8.0337505 4.573801 15.567914 0 4284639326 0
-8.0337505 4.573801 15.567914 0 4284639326 0
8.9792976 6.7417917 14.786833 0 4289506987 0
-1.4578058 5.2997622 11.846004 0 4289243304 0
-8.246068 4.577529 15.903971 0 4285033830 0
-1.023574 5.7864108 11.715193 0 4281415215 0
-0.851394 -2.079282 5.9741502 0 4278521090 0
-2.9637878 5.4257116 14.699905 0 4281477913 0
20.81641 -4.5788016 28.558947 0 4287072386 0
16.858778 -10.434153 31.906618 0 4287335818 0
1.4818006 3.166955 6.2396474 0 4282581250 0
-1.8018985 1.661067 7.5383887 0 4292205794 0
-2.7589924 5.4698143 14.350432 0 4284967270 0
-7.2793007 -12.8142 35.89257 0 4286746769 0
0.36182743 5.9792409 14.027965 0 4290099644 0
10.440213 6.7860804 14.294264 0 4289178024 0
10.358512 6.8088732 14.506978 0 4287732110 0
10.229656 6.7508926 14.318943 0 4289046434 0
1.0803591 5.3087797 14.466031 0 4282928714 0
-1.5760119 3.8818669 8.8808613 0 4288517269 0
14.995092 -8.804615 28.557886 0 4284836705 0
-12.90325 -9.9161596 31.17421 0 4281477400 0
20.115665 -4.0573573 27.41366 0 4283653468 0
-4.4584699 5.9105582 14.217121 0 4290493884 0
13.445609 -18.401751 51.112728 0 4286810503 0
15.74727 -5.2381535 24.799887 0 4285033833 0
1.2216392 4.400476 13.67386 0 4280494113 0
-1.3613224 5.1730409 11.509612 0 4281151529 0
-3.6958313 5.7111158 15.723284 0 4288519840 0
21.383053 -7.4838657 32.630497 0 4278389504 0
-1.825443 6.2268834 14.131053 0 4290493630 0
0.033754226 0.52707732 8.5566196 0 4278191623 0
-11.254567 -12.029057 30.067226 0 4284179555 0
-1.2859864 2.2776153 8.9784698 0 4287301121 0
16.208977 -8.0893812 31.80172 0 4285296486 0
-0.03394651 4.8816047 16.096453 0 4285032811 0
-0.0323622 4.8726091 16.088835 0 4285032811 0
-1.2175411 -17.616398 41.733189 0 4278981639 0
17.497591 -5.693841 26.804401 0 4284901217 0
0.095432006 5.9557843 14.348305 0 4286217853 0
-1.6170131 5.7544713 11.883099 0 4288257440 0
22.074493 -13.54312 39.021519 0 4283061072 0
-0.11014441 -0.45793259 10.451144 0 4288106322 0
1.2367009 5.283062 14.438975 0 4280560158 0
-10.559342 -19.357847 46.117142 0 4280889638 0
17.010628 -9.9284859 30.254677 0 4286876801 0
20.794561 -8.56423 32.157845 0 4279573263 0
20.350565 -6.117382 31.804714 0 4278192642 0
20.314991 -3.9071252 27.197393 0 4283061070 0
0.44398955 5.9952149 14.56112 0 4285692024 0
-11.678583 -12.966744 28.631207 0 4279243528 0
15.828246 -5.5086226 24.046776 0 4278388737 0
-1.7690214 6.0698886 11.242244 0 4283256400 0
-1.7690214 6.0698886 11.242244 0 4283256400 0
0.1445419 2.0685513 7.0375323 0 4293061105 0
21.980761 -17.665773 45.787552 0 4280561190 0
-14.74558 -5.119844 27.554386 0 4283323725 0
20.409866 -9.1255846 28.149702 0 4280231706 0
16.416092 -8.1020222 32.676842 0 4285691244 0
0.54694259 0.040157963 9.9595261 0 4285868842 0
0.91737074 5.4489098 15.066412 0 4286019706 0
-3.1491489 5.2224135 14.228882 0 4283978560 0
-3.1673288 5.2520456 14.396085 0 4283978560 0
0.4404557 6.3719521 14.184415 0 4291678676 0
17.957787 -8.5682364 34.939339 0 4285165668 0
19.155138 -4.7832489 30.136774 0 4285495664 0
0.33287147 5.9364901 14.693434 0 4290164665 0
22.267107 -12.273662 39.266769 0 4278257152 0
0.5580011 -0.5154568 10.651051 0 4291003265 0
0.5580011 -0.5154568 10.651051 0 4291003265 0
15.319786 -4.2990518 25.420843 0 4285758318 0
-1.5127792 5.1756892 11.80372 0 4286677636 0
-0.31945696 0.41154647 8.2553501 0 4293061105 0
1.2849207 4.9936767 14.213621 0 4281283115 0
-1.2874393 2.2750916 9.0198307 0 4287169793 0
-1.2308824 5.9084024 11.761986 0 4282203443 0
1.293979 -12.931801 30.34654 0 4279179785 0
-0.5030753 -4.80545 28.667912 0 4286283650 0
4.5841389 5.6210384 15.554978 0 4283585617 0
4.5841389 5.6210384 15.554978 0 4283585617 0
-2.4430776 4.819912 13.028676 0 4285626227 0
-0.11088248 -0.4627679 10.48947 0 4288106322 0
1.426962 4.3530869 13.398978 0 4283585615 0
-0.77939081 6.0006447 13.004343 0 4288914598 0
1.4485762 6.6168675 14.17498 0 4290033071 0
20.803457 -11.837321 38.918327 0 4280957495 0
-15.041445 -5.7401214 28.055992 0 4278784778 0
-2.1176929 5.0841222 12.458783 0 4281414188 0
1.4950496 6.3937082 13.901045 0 4290296505 0
-9.9316502 -13.46519 35.755535 0 4281546801 0
-0.33975688 0.96000415 7.8508148 0 4283586133 0
-0.27472964 0.99605721 7.5539231 0 4281021487 0
23.089849 -18.933546 47.789078 0 4283849292 0
-4.9412661 1.3878468 7.8623786 0 4287530364 0
1.3983002 6.5998688 14.598112 0 4285690731 0
16.093515 -18.491215 44.764091 0 4278455811 0
-1.4634923 -2.1550519 6.4199839 0 4286417036 0
1.4586687 2.9799063 6.1944156 0 4292518571 0
-3.4097831 4.7223692 14.283849 0 4282204213 0
-0.7467308 5.7630744 12.791014 0 4282403653 0
0.83364469 6.5995078 14.947968 0 4291020228 0
0.72363448 6.8688703 14.519252 0 4289967540 0
22.59137 -20.313122 49.982117 0 4285622361 0
22.142845 -17.364397 44.532402 0 4278323457 0
3.1364436 -11.296726 28.537645 0 4286086519 0
0.8181873 4.4379463 14.169415 0 4288192158 0
2.9503348 -12.162283 28.65696 0 4284046160 0
20.936806 -10.754821 36.987736 0 4284245849 0
-21.473415 -7.5152898 28.723087 0 4288061602 0
-19.573954 -6.7118082 26.042221 0 4287996060 0
-3.5760462 4.2038269 13.139746 0 4287467404 0
0.32317111 6.0284524 14.61251 0 4286810501 0
-0.96953458 5.443624 11.826993 0 4283519564 0
20.609758 -5.9894514 32.531532 0 4284311899 0
-1.3706423 5.8433714 11.61803 0 4280887844 0
-11.723379 -12.018114 31.971025 0 4284903537 0
15.108648 -5.4828882 23.221394 0 4285165416 0
21.459629 -7.0490103 32.554371 0 4285758834 0
1.0931038 0.0010366158 9.9586678 0 4290670700 0
1.3861339 5.5646648 14.288847 0 4281281561 0
22.647909 -21.852997 51.674896 0 4284375382 0
2.9656155 -11.802142 28.823282 0 4286480511 0
1.3886364 4.1758962 13.583512 0 4285759622 0
21.417852 -7.6245255 31.448429 0 4284771421 0
-1.3384919 5.3125277 11.262415 0 4281479979 0
-16.544529 -5.3527975 26.871996 0 4278585602 0
21.031433 -10.480434 37.764862 0 4280627232 0
0.14465667 2.0795834 6.8996787 0 4293061105 0
-1.581818 4.8960176 11.288228 0 4286086780 0
18.323059 -9.1188145 34.722992 0 4285298543 0
19.294107 21.717663 -6.7818875 0 4278981641 0
8.7946863 20.046736 -2.7829924 0 4284769883 0
1.6821364 16.462429 0.78510851 0 4289441961 0
0.74709588 8.6348085 10.263211 0 4284898897 0
-1.161803 5.7509565 11.6127 0 4282335550 0
26.020941 22.619682 -11.784507 0 4281876784 0
1.9258336 16.501156 0.7663933 0 4288981664 0
34.052696 16.797504 -4.2799864 0 4279113225 0
33.685307 16.618088 -4.2158241 0 4279113225 0
25.082302 18.84379 -7.8798313 0 4282005539 0
24.641521 24.947342 -9.6145821 0 4281481260 0
23.237926 -4.550983 22.868217 0 4284311648 0
26.744411 11.733271 2.591176 0 4287599243 0
19.180086 10.886596 0.8617031 0 4282795580 0
-1.36456 0.29043528 8.7557354 0 4292582710 0
1.1612949 5.5354033 14.685798 0 4286876037 0
0.14324433 5.824151 13.267169 0 4287006853 0
20.811907 10.524288 -1.8824111 0 4279375367 0
27.304464 19.891855 -6.7184787 0 4286809214 0
-1.1704124 -1.5293489 6.2742248 0 4279374857 0
20.772005 17.584644 -7.2283616 0 4285165416 0
23.083096 -4.0793471 22.643026 0 4278455043 0
23.032331 0.86996424 24.076677 0 4288256922 0
1.0263934 8.1306524 10.915981 0 4287203721 0
-0.75039023 4.6248574 11.662996 0 4288389022 0
-1.0099519 6.0524964 10.646329 0 4282664507 0
1.0949649 5.6571121 14.272363 0 4282270008 0
-0.63015097 1.6039164 7.1334257 0 4281413935 0
4.3204618 5.9356513 15.001646 0 4284308827 0
-0.70760715 -2.2392697 6.1765971 0 4280231454 0
-18.465359 -7.7886934 30.424814 0 4280823078 0
1.0925975 -0.0018981956 9.973835 0 4290670700 0
-12.904089 -13.260436 28.675114 0 4283783763 0
22.595446 -19.469913 63.326336 0 4283982176 0
15.849613 -9.7250051 27.366343 0 4282403902 0
