# .PCD v.7 - Point Cloud Data file format
VERSION .7
FIELDS x y z rgb
SIZE 4 4 4 4
TYPE F F F F
COUNT 1 1 1 1
WIDTH 711
HEIGHT 1
VIEWPOINT 0 0 0 1 0 0 0
POINTS 711
DATA ascii
21.728361426926828 -6.425351826627815 -4.395321052052452 4808000.0
-0.35886908340897367 0.32603787218864166 1.4604698994150562 4808000.0
20.32693066488357 13.758462223905426 0.37156864865503625 4808000.0
27.127513609383552 20.45847125571756 -1.7834871506603682 4808000.0
2.8651032157050684 1.0892763794957476 -1.5668287184643108 4808000.0
0.512017555054053 0.7445482542570776 -1.9404472968867945 4808000.0
0.6843072196673091 0.8665243749892539 -2.2205953182828817 4808000.0
0.14428005147127276 0.4679207908539018 0.12812075066044537 4808000.0
0.11221723556390872 -0.2993930211223672 1.1592844241729776 4808000.0
2.4873309402865003 2.9651178344023448 -1.6008546825021202 4808000.0
1.9532711939265148 -1.529957522338834 -1.9998394106444821 4808000.0
-0.023970427826508878 -0.7664177068592455 -2.7473032411204854 4808000.0
19.015898738034483 -4.5128159645290395 -5.326255182984502 4808000.0
-0.14624791909095763 -0.1754364620168234 1.173997931412519 4808000.0
-0.12138845547168747 -0.19100645533855332 1.1735648241008114 4808000.0
0.23552208955326992 -0.2359138645390102 1.123157072851403 4808000.0
0.3835919948252209 -0.0665056598014413 -0.6329513070344066 4808000.0
0.801880852579201 -0.20796899541412728 -2.1374485466506985 4808000.0
18.150556553524087 -7.455866995836663 -6.17839309155381 4808000.0
2.4444187482209823 -0.35984515959901486 -1.9144033830321834 4808000.0
2.2711502239073913 -2.0643469230215157 -2.1257725436623516 4808000.0
-0.19567353308388064 0.33137649589760887 1.5067370467845884 4808000.0
33.59305852995004 1.872671399578917 -1.9805879336701184 4808000.0
30.52525717465065 0.5882318774184458 -2.6856819339629046 4808000.0
29.422018556039458 1.2995761588479233 -2.9605384814947926 4808000.0
21.61780599842013 16.188495233234114 -3.6127007910901043 4808000.0
0.11757937586862288 -0.4344432753203371 0.35084913314376776 4808000.0
0.3445234876907566 0.5452799383495126 0.04397988582066681 4808000.0
22.178925266602448 17.82007120386338 -3.5019957608116496 4808000.0
14.61138851231861 16.99454862211847 -5.306667485289358 4808000.0
14.606957206886431 16.995708074720508 -5.3189877256397065 4808000.0
17.34475082670655 -6.781384945074407 -6.6467835987831965 4808000.0
0.35137350794696953 0.5927874708480552 -0.8100940232002682 4808000.0
15.973378653326728 -6.616723172241423 -7.008573681179538 4808000.0
15.907179624105554 -6.60598587841925 -6.991572406480556 4808000.0
-0.12531757378172176 -1.4895527080472402 -2.7679572881479246 4808000.0
28.826531010357325 -4.162919412422197 0.7198011656459515 4808000.0
21.267974827088953 12.235224500215363 -3.9821660050372034 4808000.0
0.33926645121806676 0.49393474853464436 -2.216660495482079 4808000.0
0.0432457374556553 -0.07770974853082357 1.5233329608070274 4808000.0
22.849997619686366 -9.912825948598309 0.2789817251944071 4808000.0
-0.302070420939137 0.29128657932336033 1.560236770229816 4808000.0
0.05328513726953821 -0.23984725956966102 0.7419494498209431 4808000.0
0.15191871675171398 0.5833226422022832 0.29748753331781685 4808000.0
18.189390471961506 21.421253918922254 -3.0351138468205936 4808000.0
24.751601683718746 20.029212702817535 -2.4633392703223715 4808000.0
16.657739701418382 24.431465441548635 -4.471010335177196 4808000.0
18.717548726951232 -6.453097155918354 -6.241111387374202 4808000.0
18.717548726951232 -6.453097155918354 -6.241111387374202 4808000.0
0.8834083500624309 -0.29910481336689365 -2.108781987361833 4808000.0
0.04022155224207424 -3.0557175039657904 -2.826628876476635 4808000.0
-0.17265901385220356 -0.19190686970327064 1.2416072111229606 4808000.0
22.002552288969397 33.99330451273911 -2.0088516759028248 4808000.0
21.8038891964057 33.72253039918958 -1.9931864920068123 4808000.0
16.8721099764972 21.88551035383058 -2.9405329420179585 4808000.0
28.903475708554254 -3.2995489321160667 -1.995933890329264 4808000.0
29.04082666244924 -3.290113043094187 -2.015017617496501 4808000.0
0.22653577153189286 -0.17220278260880661 -0.17890461442367567 4808000.0
0.1655081707047037 -0.06302394365404673 -0.32063995910008947 4808000.0
12.86722791348907 -5.541700279849945 -7.689731711098062 4808000.0
8.37147899270853 -4.660969149476435 -8.945324657563306 4808000.0
8.37147899270853 -4.660969149476435 -8.945324657563306 4808000.0
-0.14042369010455175 -3.0675241504468747 -2.9029915265258537 4808000.0
-1.6925198616123533 0.006803598635139352 -3.0033409093904235 4808000.0
18.383770056422694 -4.125924679621095 -5.536516534239034 4808000.0
18.703302850004135 -5.449135427657636 -5.41133778189082 4808000.0
-0.38786756164492614 -0.21300559009574904 -2.6864861070291197 4808000.0
-0.13972321548966754 -3.0965345529340786 -2.856078078190602 4808000.0
16.809847153351182 23.76141822095988 -4.384179986236431 4808000.0
0.11152716273244212 -0.29743677820430126 0.267923115756322 4808000.0
16.075107962413558 23.412445438286888 -4.348736864420756 4808000.0
18.761635280895455 -5.202405738353173 -6.0326538528106415 4808000.0
16.71788443033184 25.891122632757455 -4.337003533862356 4808000.0
18.941677201294926 -5.318494127067119 -4.719110145922274 4808000.0
-1.0648164319399434 1.396631395584719 -2.7760911819263163 4808000.0
30.256924103507256 7.664880799699451 -2.333656967362263 4808000.0
0.419166013626998 -1.0588872028543008 -2.4897743782633275 4808000.0
2.1666455877013178 -1.707485764182893 -2.2031763683705416 4808000.0
0.17239012587615998 -0.17413432947207852 -0.029193088184314764 4808000.0
0.17425978390053842 -0.17415224722900913 -0.032869795821626635 4808000.0
0.42602864667135076 -0.16615390498082405 -0.5866727985450986 4808000.0
9.09063272045835 21.60807571168033 -5.744159766909947 4808000.0
9.189882672696429 21.20175479892997 -6.290573173826681 4808000.0
18.112849846304137 -7.193766431262889 -6.670236192545275 4808000.0
14.559985095075607 27.01001327177111 -4.490743012667982 4808000.0
0.21000135643239504 0.0812711732910758 -0.6465025023355264 4808000.0
18.65707934507023 -4.040930769409279 -5.680380339627057 4808000.0
0.6595821354514911 -1.2658360802120816 -2.471582162640851 4808000.0
12.940322332578084 -5.644959045461115 -7.660008051549703 4808000.0
-1.7945274759066012 0.1501836913512733 -3.011851924873255 4808000.0
-1.9124547653929218 -0.16986100907826795 -3.190302065962958 4808000.0
16.458465039179714 21.13160068327663 -3.375718586433225 4808000.0
28.799172293404137 0.5933486072060044 -3.1147187270125287 4808000.0
-0.9340310102078493 2.09005066224812 -2.8416104651139835 4808000.0
16.137486708797358 29.32262069574905 -2.303499384038162 4808000.0
1.1352424924162987 -0.133749839868333 -0.5713651497531758 4808000.0
18.192401988409568 -4.554758459145829 -4.710744378926988 4808000.0
0.7765664836041736 3.91041296417177 -2.3674723634776744 4808000.0
-1.045053433590136 2.04135725472631 -2.721931739746013 4808000.0
17.597298829033235 -7.010631814332114 -6.587962513128545 4808000.0
0.9272436704599324 -0.890882032440313 -2.413742553770278 4808000.0
12.023057434699856 13.546928663928895 -5.731065321819031 4808000.0
3.7618141466145616 0.3584183248676842 -0.4478251581677277 4808000.0
22.355138950230096 40.93752137935442 -0.03122175359623114 4808000.0
20.369084125472142 40.55796019648923 -1.268585559426446 4808000.0
21.835565666059377 34.77907448826235 -1.4668131131618432 4808000.0
19.370433874861096 36.76015826411504 -2.2925671058726285 4808000.0
16.252076801295264 21.96264768585057 -2.7415800653284275 4808000.0
21.609125540639305 20.16558265866969 -2.663320673473892 4808000.0
8.85535521326572 23.120360477359696 -3.6609247252692625 4808000.0
7.671330759081526 23.135463821328432 -5.700320635453362 4808000.0
7.691270802247546 23.189046140908083 -5.707560898796606 4808000.0
7.82214350507539 22.861216990295144 -6.355980588606224 4808000.0
8.394746161793648 22.07666191752832 -6.411785834898625 4808000.0
2.793822609424433 3.3186161598042334 -1.680808641172796 4808000.0
2.5095105842607546 0.46478255696936355 -7.498869927366137 4808000.0
27.86411467413957 40.82672969225321 0.7749844394203755 4808000.0
21.831964410550732 40.61810197488281 -0.4858261883659414 4808000.0
21.95113643390776 39.96169602598579 -0.3611461164996088 4808000.0
25.95911635747244 35.91237713736357 -0.19016638001362818 4808000.0
20.144613190937374 41.30028332002092 -1.6849391561687574 4808000.0
20.580436207352964 37.42155208423573 -1.550926591113352 4808000.0
10.014610240059342 25.154120824909498 -2.5054821702849313 4808000.0
8.669239068232999 22.710678007084265 -2.587086947894693 4808000.0
18.380310110014005 12.484464511439974 -1.258034571419803 4808000.0
8.744351719989394 23.04774304532032 -3.7464422014218566 4808000.0
8.738325080401156 23.036495623324342 -3.752712975183355 4808000.0
1.316731748371239 3.4240018361173155 -8.774717066892803 4808000.0
21.39134990707751 39.9979123674599 -0.864145249496437 4808000.0
8.635599280723909 23.056642146633713 -3.1242774414424495 4808000.0
29.832225517196846 -4.134102653383353 1.340397730059798 4808000.0
8.847853502551168 24.1050286389357 -5.207270031445567 4808000.0
8.535816364248888 22.319541966886607 -5.635547867491411 4808000.0
56.472619936745 22.217986650030678 6.681716378518697 4808000.0
22.25121085050285 41.1669694440536 -0.24354606434722248 4808000.0
22.26152467647282 40.23762341589072 -0.08315915982964794 4808000.0
21.21180124498543 40.97510563990841 -0.7917473667490516 4808000.0
21.21180124498543 40.97510563990841 -0.7917473667490516 4808000.0
20.96256664325026 41.08747749033696 -1.0860044835808655 4808000.0
19.00663578839971 37.180986161937646 -2.34366952724614 4808000.0
21.122867178168445 42.133034876325475 -4.947661475666367 4808000.0
8.78591429495027 21.601929939637948 -6.355398138293976 4808000.0
7.187996159165663 21.683429927851524 -6.416390019382556 4808000.0
0.8131301355615294 -0.1637217988902675 -0.48735184478790394 4808000.0
21.20700292577214 40.80560130615745 -0.37560086652062274 4808000.0
8.97871529699019 22.562963414026598 -6.2931659488086975 4808000.0
8.376851326590208 21.794745135822325 -6.344580796178409 4808000.0
9.046533679970347 23.22317688085036 -3.5481681176170166 4808000.0
2.492564711572619 0.5310674603928209 -7.42190963829521 4808000.0
21.468580995382688 39.53732004190075 -0.8913446400082394 4808000.0
44.94451775059796 5.370487263686077 1.744305662872132 4808000.0
21.17013170935712 41.33495949867577 -0.4349439749984154 4808000.0
33.16722829547733 10.938568726301298 -0.8637665713783935 4808000.0
28.444820030224076 5.885617998426919 -0.7871889836165016 4808000.0
2.1216414027608614 0.27837982057279564 -6.720031685582052 4808000.0
2.877968601386428 0.4586821743722229 -7.565084116335466 4808000.0
9.052026337067717 23.64659339938957 -4.538215306569034 4808000.0
6.067174002615933 19.303259726992323 -7.377997430835286 4808000.0
6.048223363852217 19.26602057403648 -7.367112259277675 4808000.0
-1.1045021799436872 1.816240578979662 -2.62206609345295 4808000.0
25.45028969933092 17.448341972334465 -2.571862529726689 4808000.0
8.895816274586698 21.913629146258938 -5.815321412856433 4808000.0
-1.335103098310448 -0.2916324439164555 -2.940943305326788 4808000.0
0.5004989404670053 -0.16937574836906055 -0.5775809302956021 4808000.0
9.071529268523184 22.55473468465634 -5.352537724894569 4808000.0
0.45449199524743045 -0.14745920639509524 -0.5965173338199476 4808000.0
1.7938023555203348 -0.4526985276376747 -2.0657457825336363 4808000.0
1.858651248304176 -0.8482309307471896 -2.109403023981487 4808000.0
1.858651248304176 -0.8482309307471896 -2.109403023981487 4808000.0
-0.4197092366448803 -0.7229477683629302 -2.7559567193138803 4808000.0
17.1690491330796 36.78028178535904 -2.071122536628215 4808000.0
18.124343657084776 -4.12909146456951 -5.475507013769988 4808000.0
2.4577511177487814 -2.019264132762264 -2.198041475345273 4808000.0
9.37685640857891 22.84483105208287 -5.260113953072471 4808000.0
7.84567511424904 22.41752402609605 -6.511827602700686 4808000.0
22.709798631559362 34.93301601242724 -1.7064530427247058 4808000.0
18.013652686680185 32.96908322467678 -2.2308982931402244 4808000.0
0.12111043734864857 0.71602499523435 0.555187642235305 4808000.0
8.841600141546119 22.238346774431083 -5.453867547474633 4808000.0
1.9038816882034983 -0.8059200992283406 -2.1370682030021313 4808000.0
-1.0683008641104736 1.8614358760323713 -2.8434631947938995 4808000.0
18.48525733582627 -4.812146506959069 -4.811826698289831 4808000.0
7.368099528910352 24.00622671833714 -3.1134009041684565 4808000.0
8.319396673478318 25.059823381980305 -5.420422336032887 4808000.0
7.17545116133483 24.330942124767937 -5.353723718081509 4808000.0
7.196993471821937 24.197560573705676 -5.873034594775328 4808000.0
7.2238011702257925 23.863562086575847 -5.907815134822238 4808000.0
7.2238011702257925 23.863562086575847 -5.907815134822238 4808000.0
7.275875496880664 23.462878091781604 -5.8740821095131945 4808000.0
7.474823007019399 22.79619731580587 -6.144441477130249 4808000.0
0.6864950537358235 0.17280993395159072 -2.2927481430810785 4808000.0
7.17065626399251 23.244618363690897 -6.001700473155388 4808000.0
0.21456030287382877 0.08667940882134229 -0.6502555991122971 4808000.0
48.688477634578945 3.229234323658125 1.9931325940959241 4808000.0
7.161790271272124 24.275881423016703 -6.04739599731348 4808000.0
7.097046996794842 22.61673100774466 -6.3922058482943545 4808000.0
-0.34811740432177324 9.668327931316746 -9.704218399874668 4808000.0
-0.34811740432177324 9.668327931316746 -9.704218399874668 4808000.0
7.387877505561162 22.93400356865023 -5.928727423015003 4808000.0
7.283236003628116 22.254042062205713 -6.62905658624862 4808000.0
-0.14821120561864787 0.5197571928322313 0.5523398550875314 4808000.0
27.75700722172713 1.3001577374195108 -2.9651550952796506 4808000.0
8.480623410980938 24.715638969582063 -5.6654347975942105 4808000.0
7.437307466155596 22.194851861297245 -6.980249535165003 4808000.0
9.186243569286704 23.172085795085824 -3.98909490144583 4808000.0
7.772489823768055 23.80787329422832 -5.558737481491011 4808000.0
9.18874410923403 23.175556438072554 -2.9832432667641506 4808000.0
28.467754885855967 10.618328447716799 -2.569286296781246 4808000.0
27.067846323995116 40.37572408524172 -8.392852803285425 4808000.0
28.397246864414065 29.579859894358247 -0.7350999309762409 4808000.0
28.397246864414065 29.579859894358247 -0.7350999309762409 4808000.0
7.540278055254404 24.568935034748854 -3.0958098961133866 4808000.0
7.502431221729485 25.313353507169044 -5.595995341935517 4808000.0
2.798488528261464 0.9586794474466771 -1.600446463095412 4808000.0
1.4850449831529442 0.1284397212817936 -1.4134402863544886 4808000.0
2.015030695284662 -0.5167951932536843 -2.0563060981804218 4808000.0
0.18537996415609226 -1.0932264690260212 -2.5300910561536862 4808000.0
42.3446610630563 7.888566612771558 1.9198095278367617 4808000.0
7.6375723568982945 23.56979435427153 -5.647507321841951 4808000.0
1.9047470287815265 -0.33405210599719837 -1.87808887384845 4808000.0
14.189721574104942 30.998655078953302 -3.241137813665811 4808000.0
6.824051926185369 23.111929589792158 -6.551845637564021 4808000.0
6.707228373073239 22.801434143170717 -6.490952558777893 4808000.0
2.479594380117569 0.6568653545235952 -1.7581977949730754 4808000.0
-2.194236104548674 1.3087008949854289 -3.273037994610792 4808000.0
14.313306314346807 37.44586181971816 -2.3433095382605154 4808000.0
7.047802987440451 23.90910682202293 -3.473013064170195 4808000.0
7.0234657417456745 23.157004843795356 -5.891988404994013 4808000.0
0.2628933850546844 -0.14001032881424003 -0.36841951484080493 4808000.0
0.4975371477618107 0.02569394395507718 -0.5622586664566285 4808000.0
3.035304520247519 0.1550828300971414 -1.6815683293769967 4808000.0
7.986723480331987 23.793971322953738 -1.2828397483493297 4808000.0
7.643949459741183 24.058933963260582 -4.291801092651536 4808000.0
1.3936519257217803 -0.6393028735776856 -1.8080773269045802 4808000.0
41.84669369849563 7.762717078467191 0.6827488308626348 4808000.0
-1.5390403014875762 -0.24876806719275724 -3.2443408302902417 4808000.0
7.418262922367843 24.3288245855716 -4.8137511289013855 4808000.0
3.3015701019214814 1.1442558293610627 -1.3634947881838833 4808000.0
54.71567530628174 8.893367775219541 4.548368119032933 4808000.0
8.608046480144344 22.14548987775825 -5.637662244447851 4808000.0
1.4359498953921834 -0.6774023562930562 -2.049016804182162 4808000.0
53.96066702769422 7.950952407467443 5.151887556114615 4808000.0
7.607236782144788 22.795254055294297 -6.568209270817901 4808000.0
3.3683886550865254 18.761003436776864 -7.882655237913221 4808000.0
3.316334510825692 18.37396883759541 -7.950822247803222 4808000.0
1.5849547839674778 -1.7027110235662235 -2.2535423697247343 4808000.0
6.700946895307135 24.784190149889273 -2.641537930191975 4808000.0
48.70056698246071 7.921645378077131 2.157190055221971 4808000.0
3.5251815516322624 19.615498055804057 -7.71452410474501 4808000.0
50.634054859553146 8.838477818462586 3.405848213367464 4808000.0
-0.27919919099668034 0.09391390394408017 0.5895051447753112 4808000.0
18.08265775432505 28.287161079430444 -4.397070917198219 4808000.0
6.863594340389723 23.35803325545779 -6.353430524022768 4808000.0
8.921240228986484 21.546973148033615 -6.7499611153910095 4808000.0
-1.0737437367267615 2.9822706991882972 -2.6844880775163067 4808000.0
22.966035746505437 22.449016197589295 -0.6271363390758711 4808000.0
7.102874978318443 24.323964744811867 -3.1915943701033034 4808000.0
9.768561378541323 26.733145567639543 -6.27340999503123 4808000.0
7.058887059196669 22.47254135500778 -6.54400473049826 4808000.0
3.379841479483133 18.841218201782414 -7.770889906513162 4808000.0
2.896387091138209 0.9937305538596091 -1.559243010934091 4808000.0
28.867828874466518 8.375104463621945 -1.1286423046510872 4808000.0
0.9166563259211854 0.022007924735864215 -0.13690796797267613 4808000.0
3.455196779899747 19.596481090612333 -7.4636484654514845 4808000.0
3.461548087744563 19.832602486118155 -7.6939503997159076 4808000.0
26.779525550543713 19.53543671369809 0.3021461632608604 4808000.0
8.99977822562629 36.8942830283803 -4.978674415399688 4808000.0
7.896818440342173 24.29785055739985 -4.195568093003221 4808000.0
9.477884921669524 39.033500189212134 -5.643995684224214 4808000.0
1.123184001836699 -0.09683285525877494 -1.1561603215099248 4808000.0
9.406495295552023 22.76501257790187 -5.385605858099618 4808000.0
2.9935838690214136 -2.2915564242978315 -1.8938994621648981 4808000.0
0.32171528468049915 -0.17985208086232696 1.586284331183671 4808000.0
7.176919341228991 40.06263085369438 -4.711224583455875 4808000.0
6.645437693165858 39.08454236060188 -4.762270157672839 4808000.0
7.36048165660803 23.85108298426939 -4.152153163651073 4808000.0
7.393037652941466 24.81241871683688 -5.5542689809350225 4808000.0
3.3667425952977417 -0.1735272578608349 -1.7100530958647746 4808000.0
7.410648574366988 36.03361698793372 -4.377527386388268 4808000.0
7.410648574366988 36.03361698793372 -4.377527386388268 4808000.0
0.4211613390610043 -0.1043134445069267 -0.7492882715530347 4808000.0
2.4549795723388588 0.36882925506990905 -1.8800941247461584 4808000.0
7.333013210429708 39.911343570809514 -4.500708060664065 4808000.0
8.968013323196418 39.01821012595088 -5.589681011201371 4808000.0
28.020635063893472 12.538760865576357 -2.089472815140533 4808000.0
29.34617879454062 9.604749289587051 -1.9962937616577938 4808000.0
1.2974629227199377 -0.7035655756109547 -2.0232358946586975 4808000.0
-0.33152600568258916 0.22031940983103393 1.4347861770446153 4808000.0
0.43761503006116986 -0.33627633538868995 1.3442172204574927 4808000.0
27.973761822505587 18.731540676752033 -1.7283901993513155 4808000.0
-0.07261338973258696 0.027839254569523852 0.17679046659253572 4808000.0
7.59650019807391 36.493288280303744 -5.847259050668498 4808000.0
0.31869650279880224 -0.07222535495505156 -0.4898838058085122 4808000.0
0.2616471208312021 0.26828692156743816 -0.9338408126013618 4808000.0
0.10870379293994514 -0.1851634150022603 1.1888811777597448 4808000.0
23.352507839147698 21.92838914855652 -1.892681202594892 4808000.0
29.413552803646272 9.070354668865193 -0.5625845522469004 4808000.0
10.523675281334466 29.459698204909177 -10.917040470293829 4808000.0
7.373164489187468 30.44188512883701 -3.4356321524092013 4808000.0
0.6217044264996466 -0.4578945583780216 -0.04279468255401042 4808000.0
6.751114877300682 34.41769882805591 -4.530187579497532 4808000.0
7.37961597170585 18.42390759631712 -1.9489388977987958 4808000.0
1.1596917592251152 -0.44040359215761615 -1.8034476945591655 4808000.0
6.604835457639408 28.565738926995554 -6.336495852011774 4808000.0
6.894993244578537 36.42929391286 -3.676063668334977 4808000.0
0.1462346975146288 -0.15398437200802118 -0.029661259159384112 4808000.0
1.5489800301926704 0.24285127230450598 -1.426768237598925 4808000.0
-0.46578708708185285 2.737251544389113 -2.4436635271361715 4808000.0
2.033854878653679 0.3625103752884513 -1.6970257394917225 4808000.0
1.075894629443403 -0.4177658820381467 -2.19536187995339 4808000.0
-0.4130830439952691 0.5978364493866142 -2.645729210081084 4808000.0
6.834279534625893 38.18102733773104 -4.077255839387417 4808000.0
26.00773517410465 25.6729275263932 -1.3351712616011704 4808000.0
43.39347131080261 17.678032701658715 1.9854992130579214 4808000.0
7.7476619395797215 25.515183955025044 -6.043412474208614 4808000.0
1.1048209085575476 24.0894968564746 -6.852562005400626 4808000.0
1.194314882621748 24.10101544751603 -6.901237147375937 4808000.0
1.1517866821081348 23.801395450301165 -6.801555182689395 4808000.0
8.784028815983707 1.6079346938926236 -8.100987320962096 4808000.0
6.7327924517830375 36.11095549933919 -3.996404561982015 4808000.0
2.748802840889898 31.05524342687791 -4.409722610432585 4808000.0
29.868902985352072 8.047704229987776 -1.6228751736266145 4808000.0
0.490805187403883 -0.17305045052288826 1.653194809163598 4808000.0
-0.032127474069932216 0.342409624369159 0.026558818067773604 4808000.0
2.77943856731273 31.31794626149694 -4.724493399829109 4808000.0
0.3746285311256158 0.3222382602571905 -2.5837136101231057 4808000.0
0.02674803444547802 0.1586102446535511 0.14036758313048647 4808000.0
8.191327006357984 22.9598530278062 -5.755705173819607 4808000.0
33.51762722113944 13.928669354274636 3.0338572124980785 4808000.0
0.4015505462575264 0.000811283095045745 -1.244196600561501 4808000.0
0.09950856617910753 -0.13783030531892848 1.4991275055255875 4808000.0
5.2914963633048835 30.808112039678168 -6.512609958535656 4808000.0
26.42010855329503 10.264237018392748 1.9127479028423409 4808000.0
2.775528194127509 0.1488217524738351 -1.6367833960283105 4808000.0
8.428542581250195 23.128539403176507 -4.8105754031081585 4808000.0
-0.8544718694672332 22.60905844626065 -7.5311248730717555 4808000.0
-1.36140933441876 25.060480286092027 -8.581452046267033 4808000.0
0.6696447698184641 40.31386684218479 -6.598738174332301 4808000.0
-0.052335989521141046 27.56618083884359 -7.432228088263578 4808000.0
-0.7137187456574168 29.386541031623363 -8.068754211917138 4808000.0
-1.2283823791864807 27.90651807998015 -8.334694368250576 4808000.0
1.9180255900251448 -0.26068432935843067 -1.9994892247258087 4808000.0
3.1323423205592595 -3.3216406486156003 -2.017830805807176 4808000.0
48.49950259387843 24.145787999832766 3.6780786408047916 4808000.0
2.95212446966718 30.293839199736706 -4.082405448118985 4808000.0
-0.7799416732400353 32.16646189678354 -5.102054032532429 4808000.0
-0.76496307687221 32.739081045691165 -5.196461873332394 4808000.0
-0.9642894979928438 31.590885482129483 -6.680568361786106 4808000.0
28.151330125496575 10.895151037123888 0.8630197285534993 4808000.0
-1.3338728763566885 27.33705676427348 -8.324863450484937 4808000.0
0.7339267506286845 23.89006525153838 -7.24294777872543 4808000.0
0.6259941800883829 25.22034191963218 -8.35095111252536 4808000.0
25.622218854848594 10.376104822420867 -3.0561258312610575 4808000.0
-0.6600040204422339 31.930130518326205 -6.066623224147657 4808000.0
24.96591692947277 14.774324244084859 -0.9050248376662546 4808000.0
0.6319672968504245 27.61540239330488 -7.591083944368224 4808000.0
45.634185948450146 19.409443676666495 2.7467304465447744 4808000.0
24.010060119524677 17.038851645943048 -0.9213099907285409 4808000.0
0.8127016333322769 26.60538365684548 -7.005777507010707 4808000.0
-0.1795615363675937 28.077456689012298 -7.7558188340704834 4808000.0
8.058048914688307 23.02412384033967 -6.64951384037429 4808000.0
8.156835302940346 25.383399227140327 -9.05134336515679 4808000.0
4.634764889041609 34.92362607186666 -5.512003690076458 4808000.0
0.4298779034943013 -0.35308638894807487 1.3383888846109775 4808000.0
29.45101574552915 16.919945869270737 -1.7956526496006986 4808000.0
1.3922698846835329 0.004236995933418086 -1.4525556512990838 4808000.0
41.71770492059226 19.789979103660666 3.0040466228626164 4808000.0
29.388778167043522 8.832472398241823 -0.2324606398254443 4808000.0
-0.43783551384255864 28.184755438725585 -8.47637913139883 4808000.0
2.092947001124914 -2.128910664367087 -2.3914557196691386 4808000.0
-4.293405737337361 25.73790429527664 -5.4770694808724105 4808000.0
-3.771827379087245 26.697630345017128 -7.2439283907708845 4808000.0
-0.9172138364974707 28.668297873908433 -8.00180146951882 4808000.0
-3.915826574293817 27.33203177791003 -9.578163187580868 4808000.0
1.2124807316694572 -0.11471487340040998 -1.444417675855219 4808000.0
1.3257771039434334 -0.34281056449133107 -1.6705523930701376 4808000.0
0.4854066566071592 0.11070424940700363 -2.432078647354365 4808000.0
13.041228826778763 3.006231783066988 -6.741823654766765 4808000.0
13.041228826778763 3.006231783066988 -6.741823654766765 4808000.0
8.760265572966619 1.590619814191605 -8.078865296112413 4808000.0
20.03811142364289 33.58348329486071 -2.452131469691054 4808000.0
-1.424646300067314 31.097674190312066 -6.147777193321225 4808000.0
-3.199158008231754 27.302948667511185 -6.669276087355195 4808000.0
-11.924941356796582 18.954768924428965 -10.837731722353126 4808000.0
-4.377235321560098 25.99866275914078 -8.295774517275527 4808000.0
-3.00604951908154 25.06703992904827 -8.89697367234391 4808000.0
0.7657246807629149 -0.17491462297786242 -2.197812171597566 4808000.0
1.6337018698390842 -0.5448354121031702 -2.0669913054286515 4808000.0
11.033937348807402 0.001489644673106305 -6.165675338797104 4808000.0
-3.3903112338991677 27.658898050406417 -5.6323225215257295 4808000.0
-3.198042182217876 27.260008064761816 -6.620199978128534 4808000.0
-1.004491458269514 31.38709968768966 -7.601877311423761 4808000.0
-4.594167688330356 26.202088210628528 -7.507439504476226 4808000.0
-3.5101001570625203 26.73689420265207 -9.12971692078915 4808000.0
0.45085634306667355 0.8695830189232483 -2.3008681453358606 4808000.0
-2.0338428643712287 29.913601890992016 -4.837704708918844 4808000.0
3.244437628043419 30.637222795349974 -4.38221806665968 4808000.0
3.603438291226407 30.64053121279564 -5.519943175018101 4808000.0
-3.254382558453258 27.219002462604198 -7.056723249754853 4808000.0
-2.7625997472106434 28.073312390219197 -7.238168141958409 4808000.0
7.776777263267826 24.02318675758296 -5.012753579989328 4808000.0
-2.7807531416796882 27.84720261631036 -7.4408221816347595 4808000.0
25.968519060619762 15.584643913904639 -1.5294270947490314 4808000.0
-1.8319101722743443 29.4249521334776 -4.792739141952026 4808000.0
3.7831591858470377 31.968084245082398 -5.473233788014593 4808000.0
16.46467556551507 24.04357668816417 -4.482889259786955 4808000.0
-4.13097367000677 25.992511774126736 -8.113140598466384 4808000.0
-4.1426267090055005 26.589542933287643 -6.3520472153743 4808000.0
-0.22474929101008112 0.14564718635112772 0.7861464959108035 4808000.0
1.1849496359625178 24.96728348165103 -6.896073303038786 4808000.0
-3.569646759730779 26.691592129020666 -7.071411579038767 4808000.0
-3.909583910417489 26.767206925047876 -7.36425050789976 4808000.0
25.265779640030118 16.176545525821712 -0.8025809663535237 4808000.0
23.54705217821051 16.621031875160337 -1.0020144737382068 4808000.0
0.90148305331122 0.031193799479725115 -0.8599363181657331 4808000.0
24.20317819543108 33.20598103348882 -2.423030227672361 4808000.0
2.889900426418079 3.2166330533263627 -9.176525452100242 4808000.0
8.087864668855143 22.172546724524143 -0.05596039816169274 4808000.0
0.4590926266112775 -0.23638529496163496 1.6040885268736178 4808000.0
1.563027001123345 -0.49536504113822133 -1.7857580864225322 4808000.0
1.3824548557037915 3.2635100980252334 -9.067377333893752 4808000.0
6.7190175696353 23.131478011039654 -1.2101159894612832 4808000.0
-1.8044747073723886 0.15145545667896254 -3.221829608571517 4808000.0
-2.509144680400825 0.23129428680303032 -3.4203949714603463 4808000.0
-2.577757766301473 -0.1145938523211889 -3.406373058200891 4808000.0
-0.024827255245699176 0.48619040980815864 0.05416288272377301 4808000.0
-0.21690159713701607 0.09150200971698297 1.1086055300692865 4808000.0
1.9379228882661095 0.3950388168150214 -7.048298662210373 4808000.0
-0.46995845040734446 1.9736338220475949 -2.5609680044126146 4808000.0
-3.197616590117245 26.240777382254 -9.13954104537236 4808000.0
26.919829349433254 15.49549543830819 -1.877467440847758 4808000.0
-6.074242705511118 23.7477844694144 -9.870880915008742 4808000.0
-5.891566763643504 23.45521471292355 -9.79291139991683 4808000.0
0.527777738890639 -0.08611170359083609 -1.868490583945182 4808000.0
0.527777738890639 -0.08611170359083609 -1.868490583945182 4808000.0
11.465702691146575 0.8802949258751678 -7.394984204666766 4808000.0
17.404031509580054 23.095136043215827 -2.8770169013641467 4808000.0
-4.225115921545119 26.56604395678251 -7.102358553867733 4808000.0
-5.112688327349567 24.763407639651536 -8.706555657690762 4808000.0
-5.11130093335179 24.77313188798114 -8.71889740592021 4808000.0
26.906409333674198 15.501395002940782 -1.7049161918222517 4808000.0
-5.420039610900758 25.107944561560334 -9.263317121115671 4808000.0
2.2388846728208414 0.6903385642168116 -1.8716887843242946 4808000.0
0.9570034729108442 -0.36503302937853466 -2.1626438517282787 4808000.0
0.3690736612949779 -0.26733755246456425 1.5748835510099528 4808000.0
17.040168386934546 22.110463384292757 -2.812851359173114 4808000.0
-3.8817269411387367 26.09652595368247 -7.9106686179235375 4808000.0
-5.628341227803433 22.94080878424984 -9.920877062824248 4808000.0
16.975019680933624 23.201070116794813 -3.974119327314097 4808000.0
26.168404597743205 15.450440468649742 -1.214039802412851 4808000.0
-5.6262064739214726 24.655946196493332 -9.572018340195166 4808000.0
2.983864835027567 2.8734566121138334 -1.4939072143528827 4808000.0
30.250781764929645 26.466019230912313 0.6405847794739032 4808000.0
-4.617311304988969 26.38580449816727 -5.815764724300134 4808000.0
16.501962504490216 20.80918115720672 -3.4943231758976547 4808000.0
17.384667296951168 23.32147631482651 -4.287366333661579 4808000.0
0.27756477389839485 -0.2679046193861421 1.54429303147549 4808000.0
-4.763923120970002 26.530273801350194 -5.496666106531922 4808000.0
-4.2997868964997625 26.146265337694448 -5.448890095017113 4808000.0
-5.701837109194536 25.630452210354548 -9.532133755948042 4808000.0
28.550653204683957 26.81215748850767 -0.6297886092728029 4808000.0
24.686678632981195 23.869587114772518 -1.1145686329678859 4808000.0
-6.020416950527075 26.483424490658894 -7.952058851825425 4808000.0
16.434751510754793 21.459561090137434 -3.5482362841925794 4808000.0
26.970151227512304 14.645590201489991 -2.438553544611024 4808000.0
-1.7056230684945777 27.442555098545004 -7.994408873728997 4808000.0
2.0418892898858134 25.96494721843811 -6.707834364870521 4808000.0
21.337840286551693 29.48105982075052 -1.9651402963702238 4808000.0
1.4756808068533265 29.371634832411456 -6.154536145635804 4808000.0
-3.2832671523784347 27.161322024701303 -7.050655018784704 4808000.0
-8.121606937545755 27.34380589785677 -8.120685607881697 4808000.0
-0.013021458221235183 25.44961299906225 -8.178401881433787 4808000.0
0.27068476245336537 27.600307911883466 -8.829197703267685 4808000.0
-6.778343297966282 23.736117993630522 -9.969945760101046 4808000.0
-6.089793296886445 23.83393438518421 -9.90712021001142 4808000.0
19.620378469016245 7.9836190644488925 -4.856108233396018 4808000.0
-1.7014646362185526 0.5550153247767842 -3.060526281157538 4808000.0
-1.6150108823029155 -0.20792928772697472 -2.9377101465624302 4808000.0
25.306970636434027 24.083157933828772 0.5451598502193238 4808000.0
9.837518225452751 22.12513193817053 -6.097275545791632 4808000.0
-5.0940081634985015 25.057975766058966 -9.716674337737775 4808000.0
-6.748827736199644 23.419477936689944 -9.979272366587784 4808000.0
-5.229720603665666 14.17463025430947 -10.614948386694769 4808000.0
-5.229720603665666 14.17463025430947 -10.614948386694769 4808000.0
11.396224755113833 2.0250239568154873 -7.373788130016811 4808000.0
11.396224755113833 2.0250239568154873 -7.373788130016811 4808000.0
29.209703183848056 27.05474512272794 -0.5728952121848145 4808000.0
16.655216305876905 21.909525620961272 -2.3620447916965754 4808000.0
-5.142616161186986 26.80609465361584 -7.666286854125133 4808000.0
16.764296653066175 21.430957699863665 -2.989690241770409 4808000.0
2.9388627654332886 -0.9263331267463037 -1.8442212160602742 4808000.0
-5.491791431537649 26.25707575999348 -7.613686627028892 4808000.0
17.576413992483662 22.93109612683905 -3.0128213400443644 4808000.0
-0.2025353729027417 -0.027019103614765783 0.8123805658067291 4808000.0
25.944345645641974 17.792372865221388 -2.12102117566223 4808000.0
-6.861847014543584 23.359274962335913 -9.986363158647398 4808000.0
-6.67755164825113 22.79454565003675 -10.22777472497984 4808000.0
2.440556828559427 31.272341916411808 -5.019487181466374 4808000.0
-8.780215070932385 29.501199325627137 -8.05381193152688 4808000.0
28.13229048980766 18.877527625992034 -1.7592455399982216 4808000.0
-5.654708452314775 26.667689388750535 -9.021290150701203 4808000.0
-0.23427854847636714 -0.09240901143122215 1.38554516494372 4808000.0
10.249455774661422 21.836597542006746 -3.466252226971785 4808000.0
-8.422496947357576 25.359329885368822 -9.535570547809115 4808000.0
-4.55569960246342 26.21975777897362 -9.021137291877329 4808000.0
9.700745134667391 23.851531665330995 -5.195559655517352 4808000.0
-8.999979567917336 22.536070834923944 -10.595594631574015 4808000.0
1.279494473799072 0.23844236335397362 -1.2872510769759855 4808000.0
-9.228081789298198 26.78203935150871 -8.742459104211626 4808000.0
-9.286118780124209 27.69825522884368 -9.163675605684606 4808000.0
-5.379644423521408 25.04225431660539 -9.220934026058954 4808000.0
-7.493169219556501 19.858623358562664 -10.25858129825144 4808000.0
0.26263757853370007 0.41729603825235007 -2.434408444510096 4808000.0
1.0198605198844288 -0.4105710339525981 -2.155267893111724 4808000.0
-3.1395240232444546 26.996931498278204 -6.55660590115154 4808000.0
-9.413651269270046 26.564276624102785 -8.539603348397797 4808000.0
-9.329449876335348 26.695823423733184 -8.649293091341729 4808000.0
28.00163880048022 26.910054340488227 -0.4897286390382223 4808000.0
-8.131940278197591 28.489712212564402 -10.466671875397003 4808000.0
6.772283772363737 23.272839286473573 -6.790352944729225 4808000.0
30.311952435351774 28.866030395638244 0.3963727814845037 4808000.0
16.315582232127017 30.282521870498837 -3.8934001265629683 4808000.0
-5.76782825304603 22.15411980593338 -9.860638786437795 4808000.0
6.756411968597523 24.160171343418224 -3.670182226197548 4808000.0
17.075639131096032 25.80553213679455 -2.5247861619090846 4808000.0
0.002218580012751603 -0.0307730576564742 0.0014911245331155065 4808000.0
19.916572665249607 13.210438924864963 -4.277499843183412 4808000.0
1.767962555071465 -0.2212656162476483 -1.6212797557172096 4808000.0
9.29490419685955 23.356562030665287 -4.576682789866819 4808000.0
2.463239749058135 0.6377253012642061 -1.7849176491928413 4808000.0
1.5479271577135405 -0.6014291333219015 -1.9806498737872409 4808000.0
-0.3004209108233754 0.20472790890156656 1.0491537377597884 4808000.0
8.382220874788679 22.886365889320242 -6.781952143753301 4808000.0
8.69624143915456 21.993824708741986 -6.603813748610682 4808000.0
1.9598056065299727 0.3412590378859015 -1.8862920115827673 4808000.0
27.491955458434177 20.338292152412475 -1.6056552786434524 4808000.0
-0.12027673983348525 0.08950094900803496 0.05641806499428359 4808000.0
-6.702086581710014 20.981946090481177 -10.48356111130038 4808000.0
0.1168225789366667 -0.23135148678120387 -2.5655731008974842 4808000.0
0.40349135665528624 0.26009144220322433 -1.7280816808716097 4808000.0
-0.15507934100034793 -0.3067354800095785 -0.08988096349189645 4808000.0
24.15152844454335 35.07454688960609 -0.5145689139067451 4808000.0
-8.552684073393358 27.271454057763332 -8.547123481915557 4808000.0
22.535380454373513 35.85999894572615 -1.593668478099406 4808000.0
-17.02723112531029 25.614145138480268 -11.233334382382427 4808000.0
-12.598972398558688 21.098550176849308 -10.48100285210722 4808000.0
-5.504047760143363 24.316682386673282 -9.655671881832212 4808000.0
18.580310800769677 17.879226306262275 -3.73634658385834 4808000.0
17.03955493696468 16.86258108814134 -4.6890114456422545 4808000.0
17.03955493696468 16.86258108814134 -4.6890114456422545 4808000.0
1.0613273138220434 0.24307365208480025 -0.8677278554925194 4808000.0
-6.543327746834026 11.822579224515923 -11.144985939733724 4808000.0
-6.55062280841827 11.854711687132799 -11.159691485784817 4808000.0
8.707226793256488 22.72367695478244 -1.0019737235681476 4808000.0
-3.787402040501659 26.963888108207815 -5.893671125562319 4808000.0
-19.316559191154006 33.964548102395824 -12.349378967021124 4808000.0
-19.316559191154006 33.964548102395824 -12.349378967021124 4808000.0
24.966866225479514 38.47551894801919 -0.2614955308151372 4808000.0
-6.882227478453889 28.30803298747359 -7.7785994756587815 4808000.0
-14.529826645804123 24.514881719704466 -10.913813660550133 4808000.0
-6.318329399019983 8.333055459163155 -11.431770724491466 4808000.0
-6.301404832103925 8.26448000916336 -11.383911131838905 4808000.0
0.9462180374710093 -1.3842897639122729 -2.4078856154307204 4808000.0
8.793497678097086 23.64997344448119 -1.0216515817209468 4808000.0
-7.057705408053388 26.986772165568585 -7.81478514885103 4808000.0
22.76836393606878 40.14192929484848 -2.5660830231100253 4808000.0
26.014711147136833 33.84271408762141 -0.238562876985422 4808000.0
-15.20823225369322 24.527904579942607 -11.82762491805392 4808000.0
-11.80456042228416 20.462957809565975 -10.438532507930914 4808000.0
16.997705522076245 20.04116879404095 -3.278490963377504 4808000.0
12.251993271099414 43.5059979421793 -4.522610871182174 4808000.0
0.35641913022276306 -0.036475884429269634 1.5923425415323562 4808000.0
25.684910521657965 33.347002559166256 -0.5443584582948917 4808000.0
-5.502330272029395 25.862998344937363 -7.780389509648657 4808000.0
2.638023172768458 0.9161499483251694 -1.8977208972226172 4808000.0
27.668625106182173 36.331385038602605 1.5975961462691948 4808000.0
-15.704663508549567 24.465598861797965 -11.878016006780427 4808000.0
0.23400313085912017 0.048872378607735634 -0.7043150210724209 4808000.0
21.175386783270866 38.66579831441839 -0.9246984217172467 4808000.0
28.889224137430876 37.78568718811948 0.9945459602014783 4808000.0
10.73487354232413 30.378338353131372 -10.517978689691727 4808000.0
0.9980977628879867 0.3972351966656831 -0.250951621228821 4808000.0
-0.3863216966540348 -0.07284187369696404 0.43950824613846917 4808000.0
-11.698234133611079 15.679671878911257 -12.124259109452488 4808000.0
16.331270195488617 22.760928960974248 -3.215979921663638 4808000.0
-11.414761303288872 22.09226491169582 -12.555974522906615 4808000.0
-3.2907401807234224 26.88765929107014 -6.482998818277853 4808000.0
0.41620086868316564 0.029708577656688995 1.1951494599670305 4808000.0
-14.744924735743327 24.83011830088233 -10.90274514005252 4808000.0
8.938989888094776 23.047556534198986 -3.8246240163068532 4808000.0
-7.807980314038734 23.54629360144044 -9.679694140246255 4808000.0
9.667279885294148 23.685085628792486 -5.338559361471695 4808000.0
14.619505044282803 14.400085154240283 -5.641309859585418 4808000.0
-9.437011994619978 22.091080539214566 -10.446088006255508 4808000.0
15.761203217649536 12.895987366338737 -5.406086748947306 4808000.0
-0.7617694385635587 1.110219872895338 -1.8005756557487573 4808000.0
2.535117736070503 -1.8700228978248514 -2.153223518137511 4808000.0
-8.624066252766736 28.35249450602095 -9.353002423076754 4808000.0
-0.2981629430058609 0.09166246501895525 1.0736542251837746 4808000.0
-12.356730982377634 15.089225008352418 -11.43285939324601 4808000.0
2.251240206454629 -2.519387084016279 -1.0618304819135775 4808000.0
-1.7022272526583353 -2.4233691332565717 -3.292938893100193 4808000.0
0.7327240806923127 0.0795224232313636 0.5038865870173561 4808000.0
7.695671293661961 24.58953978053313 -5.653678879966751 4808000.0
1.003316419970416 0.26647156439147945 -0.1320559067957734 4808000.0
0.5579636686823818 0.11130542404838195 -0.23023859271353064 4808000.0
2.6278888302561043 32.963936542045516 -5.582694046080611 4808000.0
25.384515308720097 41.00475450363201 -1.6583131604888268 4808000.0
-16.26010594218226 22.245431245851066 -11.551422095754681 4808000.0
-8.34385258659996 24.83943961046441 -10.451721709622955 4808000.0
6.712227811476207 23.36461717569491 -6.278511514700199 4808000.0
14.660346104926425 17.099902196271152 -5.3540335253956695 4808000.0
10.330282239664813 9.385526658211479 -7.202312120121778 4808000.0
3.6990023109409016 -0.29843579258030495 -1.6833906757270367 4808000.0
15.44132866314799 13.010593329957562 -5.496214775936897 4808000.0
-16.116814653795714 20.952906369969487 -11.103699826911768 4808000.0
0.5389934740523022 27.796205128035997 -7.593051683668364 4808000.0
1.9666732440456243 -0.5120150970575841 -2.1210204357744993 4808000.0
19.640329884838604 42.39562350483778 -1.6863925101809198 4808000.0
1.3264783283915142 0.15813135545714907 -1.2390510083334392 4808000.0
23.59129044962975 32.20376137736892 -2.397556233421772 4808000.0
16.13658943722462 23.670257283805448 -4.138657990598226 4808000.0
24.386990986406502 34.30709529220301 -2.0016346858875287 4808000.0
1.079970920291344 -0.4690868786768503 -1.7506115590879197 4808000.0
-2.4429034674804773 -1.5896645777136404 -3.515999602600829 4808000.0
-6.836476961098866 20.72834040389424 -10.999309260471561 4808000.0
-12.638643650306998 16.254477274891613 -10.635838575215654 4808000.0
-2.0334952630235272 29.31117615753278 -6.541425462361781 4808000.0
-9.194780880404936 26.72462592354508 -8.710847793153123 4808000.0
6.683194764533867 23.8618108640976 -3.066752185401222 4808000.0
17.14884935747307 26.29331657940723 -0.6808066525205247 4808000.0
-5.391823424968705 10.668060844426556 -4.624370479354004 4808000.0
-7.075087575924108 23.433971388697717 -9.940367442622383 4808000.0
0.6934069307647083 -0.2721386777480461 0.49310702585614896 4808000.0
16.213627039464427 20.52675575964165 -3.828001673933089 4808000.0
2.488638986968782 2.4352986887370127 -1.7713071061983592 4808000.0
-0.21930718891510564 -0.8300068582970548 -2.715041564521061 4808000.0
4.5132878232146645 -0.6888810545689603 -1.6837443311903892 4808000.0
3.0674600234641383 29.415995259457777 -4.318206661977756 4808000.0
-13.92730346547345 15.352808025642446 -9.159067090819068 4808000.0
8.493554679936194 23.67168836335798 -4.947110525293496 4808000.0
-12.40904978178946 16.851369396130234 -10.650967382239699 4808000.0
1.2204385437256162 0.5815832735067481 -1.2662283171668736 4808000.0
2.952757990724194 1.1333892862968238 -1.6005692498005284 4808000.0
-12.238425436388546 15.745525527276452 -11.50519537695004 4808000.0
0.5026530647021952 -1.2128641110761427 -2.53896805688589 4808000.0
7.872910422564008 23.202609700577163 -1.0549874206875303 4808000.0
0.2554495028788417 0.2052355154712595 -1.730671619250638 4808000.0
0.31977498716026764 -0.10226896423807652 -2.473671956623685 4808000.0
-1.8706878883245661 -2.2357529274026797 -3.3182796837555606 4808000.0
-14.697807322919346 25.81122382087897 -10.825264663633861 4808000.0
-0.23528157564731514 0.06751439472557674 0.755749953360564 4808000.0
7.871553505572464 24.19325963340873 -4.444874233838654 4808000.0
-7.7528469702637315 22.59088285593742 -10.126676936454244 4808000.0
9.7495176714227 22.815022211109515 -5.54136172222127 4808000.0
9.804386678827342 23.166957571940284 -5.7470903172509935 4808000.0
9.021812949213952 22.110922288322673 -6.047120368534369 4808000.0
0.8896248155598206 0.9729285816482021 -1.855376326051069 4808000.0
1.9017467359196751 -0.20483752392425014 -1.7504868545110486 4808000.0
1.6039496815749898 39.093951603628554 -6.302718128148058 4808000.0
2.4913240711933806 29.643154746350415 -4.578620260445639 4808000.0
8.866795734789363 22.94932052296973 -3.9216027613697277 4808000.0
9.566755306964408 22.284804248316643 -5.009898860243208 4808000.0
8.738257949076624 22.367470016870094 -5.519379951328363 4808000.0
-13.3173366366591 15.384874726272919 -12.488326797771725 4808000.0
2.421323237411508 2.650184373973441 -1.8041014394242274 4808000.0
6.835807137563298 39.237095165548226 -4.510338675050736 4808000.0
6.84831419251235 36.573369652071335 -4.049667014252698 4808000.0
0.012661358558411495 -0.23776477629787607 1.436365478323023 4808000.0
0.012661358558411495 -0.23776477629787607 1.436365478323023 4808000.0
-19.702547086173055 19.35948893867405 -13.014575537368058 4808000.0
-20.074255040752163 19.91192711654178 -11.798423917527272 4808000.0
-18.281627537818693 20.159194669593496 -11.361342153898319 4808000.0
-18.555606825454674 20.530657827331794 -11.535832828914423 4808000.0
-19.558963506857168 19.440013616037497 -12.82098786544933 4808000.0
-15.67310161017023 15.107153655119596 -10.889534618022646 4808000.0
-22.91474994624215 25.511113199164186 -13.317869989616312 4808000.0
-21.849844333688704 24.147208184731316 -12.591321929731032 4808000.0
7.095830628638235 35.748608634128644 -4.075924656662469 4808000.0
-14.919498310535023 15.513589993553492 -12.070149818825866 4808000.0
-22.667754813042215 25.990874447416008 -13.382910981868953 4808000.0
-19.590738597109013 19.457836637277 -13.57056930563975 4808000.0
-14.010181517646982 14.511470336672335 -10.768459383300026 4808000.0
3.8472130282736527 31.137384727270845 -2.965817569484481 4808000.0
3.8472130282736527 31.137384727270845 -2.965817569484481 4808000.0
-14.625236808350921 25.877043184954335 -10.683795636362063 4808000.0
-22.05763372184013 21.278044270241626 -13.666471115346607 4808000.0
-4.708753163895295 25.62127917370565 -7.636826953957511 4808000.0
-17.505517273184058 15.690154253523335 -11.54363981741833 4808000.0
-21.160528576330858 16.52431153184128 -14.03168152369614 4808000.0
-12.395592911539778 16.842122284582228 -10.642910865772146 4808000.0
-15.9429600800837 12.758733766398922 -12.757222992396166 4808000.0
-15.303008549891457 11.893533067075658 -12.325498437987516 4808000.0
6.708782484607317 23.707051821384365 0.3003749575824277 4808000.0
0.027775877144181282 41.782825501022465 -6.706502221894215 4808000.0
3.6966730342793417 32.437222826918955 -3.6236227166322243 4808000.0
-16.224235200605538 23.152218660425383 -11.832593609688095 4808000.0
-13.506184318717548 23.538378729157063 -11.26270065878097 4808000.0
-20.958099598859636 16.39016624482192 -14.206298632645119 4808000.0
9.226512198705516 22.391983250866794 -5.606567294045478 4808000.0
0.45370848995759705 -0.03077364906499902 -1.0957814681638918 4808000.0
1.531097631792441 -0.583767343277132 -1.7175087385367918 4808000.0
-24.814838120077116 22.86037176301478 -14.034884328329355 4808000.0
8.435264661945409 23.298848365962574 1.222149456736574 4808000.0
-22.34662316048161 19.8052265922794 -13.006643491632897 4808000.0
-22.244810711342506 19.336337339448896 -13.307355656066512 4808000.0
-20.829991039851993 17.285337515323008 -12.987376741856833 4808000.0
-20.829991039851993 17.285337515323008 -12.987376741856833 4808000.0
-20.90408745512824 15.99881620455065 -13.8433226755038 4808000.0
-15.159349245270004 12.020607709189335 -13.060305038148027 4808000.0
-20.156332234917226 18.260523638111604 -13.01073672893657 4808000.0
