ply
format ascii 1.0
element vertex 704
property double x
property double y
property double z
property uchar red
property uchar green
property uchar blue
end_header
0.7276016632791931 -0.3551338577608773 4.5763481951895360 164 173 180
0.8692407908347521 -0.2920395753381628 4.5752224167088409 96 105 112
-1.0110657580182021 -0.6503775867005956 2.7956506542006010 137 99 54
0.7551134729260823 -0.3723966543593328 6.8249457842121970 117 126 133
4.2470873631641899 0.7421882359478718 5.7371681780205961 122 93 51
1.3485432711596763 0.0608375422328961 4.5018694734007658 229 236 242
1.3589113002494471 0.0945567214636160 4.4408864954212337 219 226 234
1.2050581712340620 0.1557799143334630 4.1385911573882606 209 217 228
3.8634985864842575 0.9170134266777741 7.4543647058484330 75 81 79
4.6741482728092629 1.5005207417718054 6.9483437904758851 87 83 72
4.8303602596468211 1.6252279687039255 6.8769868141000039 20 14 0
4.3444009234951793 1.5690800624666303 6.7510875775391570 38 40 35
3.7365791350241220 1.5600298279180032 6.4635607543538445 22 23 9
3.9872670629456923 1.7830915897867168 6.2718422865856462 22 22 10
3.9350616312789679 1.7865746341529769 6.3705774900932584 120 122 111
4.0258846021627805 1.8330251376607034 6.2779725549011589 114 108 96
-1.1276073142115819 -0.1343411210601604 3.1792066355343636 146 55 34
-1.7114392120996427 -0.3074092927097589 3.3493557809366434 56 61 67
-1.1916939249575120 -0.1182587715437600 3.0945518764385946 137 62 7
-1.3969124956634655 -0.1447296629008018 3.1431518569068597 50 32 18
4.0245269257380700 2.2511344123395518 5.6221189465774390 168 178 169
4.1176904452326664 2.3188949483603745 5.6150846586574952 89 99 90
4.7045170900403210 2.6953204499218577 5.4250067989129249 21 24 3
3.7211845935885322 2.4294181878578338 5.3719971495917891 54 54 44
1.0562452316787831 1.3099960209989630 4.7846527080720023 135 136 131
3.4114590305796004 2.4507557518396754 5.0350139991981839 63 72 71
3.3364753867900179 2.7243489590329877 4.6842789031530288 87 100 90
-1.1535320088781336 0.9552079743864615 4.2413102241219676 44 48 47
-1.1706088423698333 0.9809037801350809 4.2362214368818432 91 97 97
-1.8525422655591934 0.6683118313029716 4.2491038379431432 60 64 67
0.4939675711656247 2.3218827390727537 4.0099851625143152 121 123 120
-0.2107858168260417 2.3546944950325832 3.5902919940305540 136 142 140
-1.0522627942663316 -0.6959509489143665 2.7019605157208217 213 156 43
1.2128691702358680 0.0687776837203634 4.2718346334172459 42 51 48
1.3937143473081426 0.1339564610458190 4.3299229761381604 43 49 45
-1.2237198208207731 -0.5962602381220142 2.7516440433898715 177 119 22
-1.2431934682946491 -0.5471085987685026 2.8519482394522186 85 57 20
-1.0862403407331291 -0.4401370632907861 2.9502851518640232 183 148 128
-0.7875010798730500 -0.3861890758771473 3.7965572960534324 78 86 89
-1.2536038428718190 -0.5136136767154973 2.8843254281622790 71 50 23
-1.2614600547634629 -0.4876287329403635 2.9035085666471416 73 46 17
-1.2855971850918329 -0.4511146419757978 2.9891167335941757 187 111 36
3.9870104343933663 1.4488823694783628 6.8227484740223936 15 26 22
-1.3133363988533671 -0.4071259948022779 3.0840581751038676 223 146 38
-1.3125867269557809 -0.4058942768954679 3.0952737794588487 222 148 39
4.0230697910473729 1.5762304640953040 6.5448926057869334 96 96 86
3.8040608305709274 1.5256020036649762 6.5666599847293288 168 167 163
4.0261861293567511 1.6469037101196782 6.6011555291649628 10 12 1
3.7956207528576922 1.6198750277782776 6.3637302290705771 117 117 107
4.2764943408894265 1.8066048731493436 6.4224534213409079 23 25 14
3.7936198366367502 1.6570049783962422 6.4350674394559046 11 13 2
1.0114977380462331 0.6293489417511059 5.2074249397788668 140 140 140
-1.4506356100383433 -0.3370410735040660 3.2983070997114958 164 31 16
-1.3518687840046442 -0.2197251570113749 3.1143633054301003 16 19 10
-1.2289860273285085 -0.1092975721453459 3.0838962415376625 126 52 3
-0.3544029134648135 0.3146067814566755 3.0942173079853643 227 152 157
0.6156526117306301 1.0607130834940999 4.7331581345606821 93 93 83
-0.3988926000885308 0.2736133013032566 2.4573663968898170 77 78 72
-1.8521447981467289 0.6248911228876378 4.2733870748847362 108 117 124
1.5687914286218394 2.6003172386976807 3.9691266991846974 143 152 157
4.1196924009714158 0.2584869090053966 6.9581863135851902 67 50 20
0.9093366611320799 -0.3438337903015175 4.6350234347981445 74 82 85
0.8644003987259389 -0.2844788145228190 6.7971066013118078 109 113 114
1.4564164655115608 0.0342041951323457 4.6110687369150165 242 249 255
1.3659602442435506 0.2096994508365156 4.3333750333903867 245 253 255
1.5588940549958916 0.4516422233995867 4.3165657979979262 119 123 124
4.2489729005927392 1.3744988482590934 6.8667066887065067 125 118 102
3.9156655929365209 1.6638309351496532 6.3535519896073955 31 36 29
-2.6436383497609484 -0.5841203617263199 6.1798415352395590 232 240 242
0.7997181540840910 0.6415362066260137 4.4454204343686694 94 95 90
-1.2037957283799778 -0.1405178761976850 3.0761970645078329 222 150 40
0.7393038183228904 0.7860487474378106 4.6283256719025090 5 8 1
1.2007362940216215 1.0328824688703793 4.9257262138696660 152 162 163
0.9031500817184267 1.0408693797399133 4.5970191308154620 142 144 143
1.2282782921214823 1.2593135144749967 5.2115294123700142 107 107 97
3.5760816304055560 2.4240202755854638 4.7503179762403773 255 105 97
1.4607044969091443 2.1908820724531748 4.4514922550096516 33 38 34
-2.0119120966846111 0.8712818794193606 4.4379086650823947 117 126 131
4.0180746137536554 0.1468469077606128 6.8391631348307849 158 128 92
3.9344567828794554 0.6028335552591578 5.5896723738382796 117 85 46
4.2220209332470331 0.6661778860223704 8.0240913893349557 126 130 129
1.3144149658311610 0.0431270385399852 4.5030398710399329 231 238 248
0.6265006526559080 -0.1331207592991025 4.8805381791677513 50 58 60
0.7468814401134525 -0.0605275966800356 4.3710989759639363 47 47 45
0.2269828535492329 0.2141188113566068 5.3962728501472847 178 183 186
1.3201105694955200 0.2697111599970682 4.1355478783023996 227 234 242
-0.9371190836822973 -0.3842870637005904 3.6825850371712616 42 48 46
3.4576713171067888 1.6300409929615607 6.1706698677872982 11 11 0
-0.1519653739863861 0.2298614580399876 3.2327828951772379 246 255 254
-1.2455023105452943 0.1281340339723561 2.9251021247999733 169 11 2
1.3711113581685801 2.1938535504424448 4.4046148061445916 104 103 98
-1.0812738102243544 1.1085061363858257 4.3288788611241280 136 145 152
-0.4311376670284206 1.4627636076661310 4.3104919824264289 58 65 58
0.7708988466979219 -0.3590972144229666 4.5696977069935771 101 108 116
3.7637055173858367 0.3753139415544984 5.3320384140579664 161 127 66
0.9248211321467918 -0.1776016327778521 4.6177281851047587 76 83 89
0.7758158412103039 -0.2635565035953077 6.8529389427430445 148 158 168
4.1404629641660451 0.7678471717514510 7.7203153027171814 41 39 27
0.9154615963487150 0.0842478160728215 3.9805703903614074 5 7 4
1.2503337116213129 0.2330270142763784 4.2614351068871530 244 252 255
4.1785909489679254 1.4744156782862079 6.2215579326723098 90 86 74
1.0599124004411598 0.6141526069107680 4.3987192325766209 165 169 168
3.6702153410151501 2.3108632097436774 5.1840869799787033 133 140 132
1.0635373804284189 1.2699903751572248 5.0442895272819115 10 16 6
3.6218477445616619 2.7502489093680031 4.4523807351470222 114 115 117
0.7355639965763749 -0.2939474259755709 4.4845767392672311 228 235 241
1.4015676234469536 -0.0777539096343237 4.6763938233173636 244 252 255
4.0632801731059605 1.3988777097413885 6.8300119704237527 16 19 8
4.1905099805284243 1.6074162453753527 6.3789401073506253 6 7 1
-1.3911409236323269 -0.2037530089087837 3.1213327125517973 192 132 18
-1.3922385647308380 -0.2036314809907144 3.1360377455039226 200 134 11
-1.3363424495003637 -0.1771908204480593 3.0829699236935495 34 24 15
0.4444597065202240 0.1736693364371541 4.6176386778371858 97 99 96
3.5401716113580064 2.4375357552484971 5.2797884871444909 156 161 154
3.3228725782191613 2.4900028938052605 5.0673880774474487 37 38 24
-1.9849508223487251 0.7243853073415976 4.4335215394377698 173 180 186
-0.4333867515504517 1.4314638636933941 4.3069889570425595 87 89 86
4.4581426397778658 0.4390514085403118 7.2542357951100138 79 59 26
0.7175525003610788 -0.2907073437826521 4.7550678759354224 35 41 37
0.7254608195437728 -0.2925350863434827 4.7650583052111966 28 39 35
0.6404868951333732 -0.1493987260573149 4.5003145412318890 60 65 69
0.9327640265535189 0.0575557210264101 4.0095238234774326 10 16 12
4.7206722197484590 1.5554181979358921 7.1827912111780519 109 109 99
3.6361656450741058 1.7883589169440888 6.2508419342277799 154 155 150
-1.2342563565816995 -0.0503885399943375 3.1051337048516476 15 4 0
4.2646603342970089 2.5680906224958342 5.2397439686137490 100 110 99
-0.5540937517446238 1.4181291912701892 4.5086907852101401 138 141 148
1.0326393079452212 -0.2597763409568556 4.6719189679841104 56 61 67
0.5905821804441458 -0.2302915004068448 4.8363809565701770 174 184 186
-1.0081965618285298 -0.3857317785024045 3.7548773504479951 233 240 246
3.3874863755411657 1.6333421995715034 6.2457560032265720 31 33 22
-1.5983255295222953 -0.2598276458975778 3.4076428761743336 90 21 16
4.0148447128819225 2.2806854509229590 5.3731072905316921 114 125 109
-0.3975462859874828 1.3311341975946569 4.2915856896027673 75 85 86
-1.4185834845653131 1.4065617290139134 3.7920628345415688 145 149 152
4.3123806220904033 0.4613950810574693 7.7911422753162931 22 23 9
3.7431471951474506 1.4596052435413092 6.7050865916358715 173 174 168
-0.2824918707463065 0.3176969360604480 3.1052307627476270 3 5 4
-0.5538468226619276 1.5624529919375159 4.4258120079451055 81 79 67
-1.1499149909914654 -0.4878260671601654 2.8502162034400822 17 13 10
-1.3575810722141450 1.5820656842094185 3.7833949834805836 72 81 78
-1.3593984690641192 1.5969433847156573 3.8025366963853089 79 88 83
0.8405936371272071 1.7201794529453673 4.7144254550609137 178 183 189
-1.9084935507636678 0.8080571682033963 4.4340234253286104 80 86 84
2.0375781821116550 -0.0201987873487716 5.5716560730087172 174 181 187
-1.2056733374854522 -0.2795620417026393 3.2033364623348191 15 11 2
-1.6846752126563096 1.2131369202343920 4.5282150854533434 144 151 159
3.5852800487113234 2.6320626132077982 4.8905980140815082 2 4 0
0.5121895011351399 1.8342460195433128 4.1770772206698679 11 16 9
1.5990977904138617 2.5513700793925480 4.4958723124855213 4 9 2
0.1612955923444133 0.7673374761728193 3.8571868742821693 1 3 0
3.8863892501405992 1.0544521903406809 5.9825943079683865 70 47 15
-1.0670228035301130 -0.8772909478548448 2.7547984676428872 120 129 128
-1.6942927240885728 -1.7047255328337905 8.4202391067825779 139 146 154
0.7726551857910088 -0.3423540630273579 4.6301153368682400 88 98 108
-1.0202017827344556 -0.2520376922333100 3.5686929779968559 83 26 17
-1.3778210241968172 -0.1013520792247703 3.0979421024513107 82 48 2
-1.2344906741632737 0.1834465714056513 2.9285178758468309 177 50 41
-2.0958370482729189 0.2753993735279875 5.4784880342728162 152 159 165
1.1112063140088639 2.2180137361705472 4.2586359325759799 43 49 39
1.1152388111888931 2.2223302659510780 4.2658158485127764 29 38 33
-1.2251917554579403 0.5660969632694570 3.4107835936822992 192 82 83
-1.8094438886354163 0.7070913079675536 4.2649218768251176 250 255 255
-2.7005002430064278 0.6952898854287215 4.6629591522746523 140 149 146
1.2723209211093596 -0.0708515645141267 4.6952772951583706 220 231 237
-1.1826482486539940 -0.7620921274913279 2.7771709014188661 46 40 24
0.8175284294366995 -0.2892247271011264 6.7591703824377376 101 108 114
1.9266191589227364 0.3752296038441663 5.0186326850161747 72 80 83
4.0205508481310286 1.2199569410965583 6.9500567245222644 48 48 38
-1.2684899044532714 -0.4516155114749804 2.9180073540756237 56 31 0
3.7162294053189351 1.9116018662990300 5.8812001869763693 118 118 108
-1.3883203934678701 -0.2582484106767689 3.1737005768386983 52 24 10
0.9032705410261553 1.2694712683788960 4.7958729706816374 14 20 8
0.9922742913176151 1.5665763197969869 5.1302146111627831 14 15 7
-1.8199682881261419 -0.2302860213282424 3.3332457320951758 102 111 116
0.3075160583578428 1.8275178571423807 4.2651195256049323 42 44 33
-1.1515006218556139 1.0219237220391029 4.1459351457288616 91 93 90
-1.9921063271449226 0.8184445408389414 4.5905531243001390 108 112 113
0.6071915869187380 2.2864629972128365 4.0744134008922552 124 126 123
0.4841134495845983 2.2277025428918864 4.1005702915331970 127 128 132
0.3520989065354711 2.1659902641992685 4.1054315055918700 129 135 133
-1.2957028391194236 1.7330094920983181 3.8721505532381539 40 52 68
-1.0707809734219473 -0.8198581419963178 2.6687744210833357 191 188 183
0.8992907685909933 -0.2989711998743698 4.5732574380111242 200 207 213
0.3597887309786679 0.2620079941614186 4.0777930790856036 48 46 47
1.1075478439263087 0.6622612693544900 5.4397161904948801 18 21 14
4.1666483491441539 2.5542346473492947 5.2108333121327242 119 131 117
-1.1764074347354090 -0.1268457334320278 3.1456554247138575 156 76 7
-1.2297788670901642 -0.1326115470004330 3.0610050424470683 218 152 30
-0.6177286269580466 1.4847839380649785 4.4161621894044218 61 59 46
-1.0145541062994055 -0.8229491149357204 2.6777100259341293 178 185 191
-1.0554252205471977 -0.8235277311863236 2.6757336248383319 189 190 185
-1.1898455762101339 -1.6058027636510503 8.4107893982420290 116 113 106
-1.0141091276183736 -0.7155198353276909 2.7442726369451123 192 175 147
1.4301905026704029 0.0754851459888928 4.5380360838741014 49 57 59
1.3777611689514062 0.1613780402258642 4.3961820320298859 50 52 47
1.3284316609927302 0.2474107677777985 4.2540450742123950 56 62 62
1.2570328734584373 0.2191587413877654 4.3685345197249621 47 56 55
1.0122409655190914 0.1653058689979959 4.0991340330484691 219 228 237
0.9152800023142790 0.1310087149636456 4.2715579486037702 4 9 2
-1.2636998764327574 -0.5200021024894135 2.9384342884890451 132 93 64
3.7441918915947814 2.2703270419744519 5.1412382778019197 104 114 106
-1.1677948940652163 -0.0713999572675479 3.1380859823158920 103 35 0
-0.9916805892136931 -0.8228559143681692 2.6827867197906237 34 40 36
-1.6219895657411547 -1.6708516856773632 8.1691530650802680 40 49 46
1.4470622517013019 0.1285383310593224 4.6516682055138920 34 36 25
1.2647634197066349 0.2967072492386544 4.1877659092590154 26 32 28
1.3390235136832618 1.3818923481247074 5.2912432119019561 32 38 34
3.8530106933174748 1.6369219847161092 5.7417486178734229 116 81 23
-1.3269920162589419 -0.3606365044822822 3.1184536080298084 45 23 2
3.5773690950114565 2.4226762563696402 4.7503303071221721 255 105 97
1.3715270142220441 1.4552649350738167 5.3349436911535033 122 122 112
-0.8504717795936815 0.1558364444622301 3.0304806028229376 105 16 12
-1.9125166118122503 0.6648150431987876 4.2583103088022254 99 108 113
0.5457208577795685 2.3715272292797152 3.9345481401316933 123 124 118
-1.4631076741881095 -1.6382516121571105 8.4675711173354422 155 166 170
1.6436409552454117 0.1434623804488580 4.7232320750812598 217 224 232
1.4717318589162329 0.1988858474192872 4.4169606084505739 219 226 234
1.3503952413131353 0.2037062059998864 4.3211290524504840 224 233 240
1.3653117375762129 0.2072528618803462 4.3410613155936542 228 235 243
4.9141109889824239 1.6484408774272985 4.7134221448025944 80 82 71
4.1950066616671995 1.4344547337467579 6.8752916045452155 15 15 5
1.2976572027162980 0.7802436432510240 5.2332605506730419 158 160 157
1.0220243445713226 0.7084868150117815 4.8652974843074830 10 13 4
-1.3512135768596267 -0.3545483368624447 3.1803167860407435 238 178 58
-1.3237875352977928 -0.3288295355732480 3.0659777979978360 167 108 16
4.4562087433905360 2.5967199375350409 5.2334813374406943 59 59 47
1.2687986037164889 1.3277740334506287 5.1460814568167779 55 62 55
-0.7642790968301456 -0.1759733617410413 0.8247117305872754 69 78 73
-0.7820579972736914 0.2245710731185311 2.9781372477042054 241 248 254
-1.8638876668255742 -0.2008326650350935 3.3276200340815882 183 193 195
1.3858756807720156 0.2858838865998992 4.2298346583686133 225 232 240
1.2085573441605062 0.3751304356218900 4.1970207797781534 166 170 171
5.1903632729565254 2.7720911060563380 5.3130583060939403 74 79 73
5.3923812713297616 2.8737532841937097 5.4551865941701214 73 78 74
5.2039227034141602 3.0677023786132240 5.2118367218803723 91 101 100
5.1504588270713247 3.0370498048756862 5.1765684782338273 91 101 100
4.9926181302815795 3.1543769480397539 4.8696989724197675 5 10 3
-1.0611743431335428 -0.8466100852428222 2.7249782314513129 174 176 175
4.1979122685895058 1.6496867525875365 6.6167174528995236 89 90 85
-1.1379755837608940 -0.2505424380450443 3.0689414903927936 158 46 42
-1.4190517125779081 -0.2602285907047104 3.1947167507576584 193 122 6
3.6421991202109472 2.8607771531981916 4.5273284823596551 96 106 97
-0.5849874916084332 1.3676074099209186 4.3878267671378604 141 150 155
-1.0755634283486077 1.0754105867681623 4.2009895145779481 104 108 109
1.1022088705520763 0.9112187306346609 4.9317466586432248 13 16 7
-1.4174381021550817 -0.2982607819568684 3.3583895263129899 199 127 6
-1.3444854159843835 -0.1163089059040240 3.1029605318961679 211 133 7
3.7047821031600821 2.7098410246253639 4.5933693337075905 3 5 2
1.3268547592871871 0.8127519929393241 4.8804791168621753 164 169 172
-1.1283268025109012 -0.8479053747122849 2.6818802979490655 11 14 5
1.0384777673617023 0.4248932734164218 4.2070204983610413 4 5 0
-0.8182341000081392 -0.3201191015683428 3.7488526639479716 83 91 93
-0.8191152983452461 -0.3203583387750030 3.7465996074023380 83 91 93
4.1977980934034962 1.6859025493053437 6.2525762870210331 27 19 0
1.3218909141571782 -0.1121814932386812 4.5668794201078722 216 225 232
4.5610665393713274 3.0025147631688553 4.9204072914105854 106 115 110
-1.1956325655964821 -0.2524693308456209 3.2413824525527097 12 14 3
-1.2001543304559648 -0.7934708924716496 3.8120159979182864 186 191 197
0.4323573169185293 0.9608754950394519 4.3558551502166258 15 16 10
0.9234920383443105 0.2013767880320905 4.7048825700042620 10 20 12
0.3278565900543203 0.6602698893879785 2.6058012838506941 121 127 127
1.2506629714975213 1.2174643202058215 4.9336020741758473 101 102 104
-1.2669644816682990 -0.4648174106431812 2.9262480911086408 128 95 50
-1.4313137470103869 -0.2423085674107600 3.2537871397269766 78 44 0
-1.4248583467788254 -0.2063123014351486 3.2089602447832486 125 108 90
-1.3983520419916293 -0.1249108073545113 3.1164364528539164 103 70 27
1.2984620501632580 0.0329147872546157 4.3382250463297032 199 204 210
-1.0489553430424821 -0.8297733999034853 2.6570080532915967 7 7 5
1.2817761983256353 0.1235811215109247 4.2397089715405283 201 209 211
-1.1122894241718870 -0.8405277730653579 2.6479244156753743 34 38 47
-1.0765575864495893 -0.8138972324263288 2.6264128834336780 42 46 47
-1.2654006139124421 -0.4746607518766073 2.9378784764272958 58 38 3
0.0052677453569720 0.3156164245198615 3.3973510162465819 48 33 26
-1.2806103214737632 -0.4720400747831164 2.9699665571768872 71 37 0
-1.2711452559145142 -0.4624180805742090 2.9433922834461144 75 46 2
-1.2749133144076730 -0.4251887585332507 2.9713230347736133 149 97 21
-1.2777191189195602 -0.4271581183641812 2.9639085473427875 152 99 29
-1.2738321264228079 -0.4090173270320976 2.9638899917219805 75 26 0
4.3813033382482400 3.1816007315427268 4.2220707337996100 45 50 43
1.0335967988234305 1.2276811784354429 4.7291932991465373 134 136 135
4.2336362865912367 3.3230558600446152 4.1907326331259833 56 65 64
-1.3710193597491203 -0.2236081726848418 3.1106700705474979 129 89 37
-1.1959419997468455 -0.1080113408239519 3.1014707068634055 162 89 0
-1.1766522561029131 -0.1024465941717396 3.1235517795013736 226 160 37
-1.2564832780675379 -0.0986116839698264 3.1005416923633509 122 51 0
-1.5743202749300809 -0.2717638772827017 3.2734961677609902 70 20 13
-0.7533605415427085 0.2853372638606111 3.0071038508008989 175 145 121
-1.3257734145207267 0.9320422171805215 4.9088938090148382 190 200 202
1.3074633776097244 0.0002361262065413 4.3595425927017075 71 71 69
1.2242971088109142 -0.0539534030415589 4.5628208981068834 225 234 241
1.2892827692591806 0.0228006870966750 4.4986363250040062 213 219 231
1.3051406917828929 0.1765253694912320 4.3065895621366090 222 226 235
3.8612896634855867 1.2146264047781306 6.6247445547519925 105 104 99
-1.0643624057072962 -0.7980917461147210 2.6105803021088270 239 253 255
1.0842328390136724 0.1126087336780873 4.0979287999517968 44 50 48
1.1733229021571661 0.1832541930335533 4.2092630912169842 216 224 227
0.7986249167248696 0.0515101333479325 3.8222865984976040 59 66 72
4.0023791969996054 1.7631367813210566 6.1145700657701942 31 31 21
-1.2487729108264569 -0.5641893419277337 2.8465610835500113 62 39 7
-1.2631940217185174 -0.5478571546526030 2.9022019028567243 47 35 11
4.5779364409195979 2.8227539787983207 4.2286880178588673 51 57 47
4.8274899632558990 3.0240128230368293 4.0854126459279136 56 64 51
-1.2676789976131075 -0.4520150114728155 2.9192633050347383 86 44 4
-1.2762032624323305 -0.4463762998071509 2.9396881880732644 151 93 29
-1.5917216272591215 -0.2792260008180981 3.2799240281336886 69 25 16
-1.8640837740804317 -0.1738826606780259 3.3193076909017218 29 39 40
-1.8621993240970256 -0.1712587248319146 3.3311922415764319 38 47 56
-2.6184129782386556 0.8269252160298440 4.4733469569424926 106 111 117
-2.6148922813367927 0.8132249841674352 4.4360839887847980 96 101 95
0.6068492442304866 -0.2500950134379624 4.1845484817380170 65 73 75
1.4151929007831934 0.0744602817713536 4.5157697755115622 54 58 57
-1.0951614500606093 -0.8456023040291096 2.6573234751574835 233 230 225
-1.0694421748752827 -0.8260882114856591 2.6417830800884232 220 221 216
1.0411394293072458 0.1697262703768763 4.1413790909165957 232 239 245
4.5578117401725589 2.8611690535563712 4.2842434636956765 8 11 4
-0.1937041148468892 0.2334340880996253 3.1691117963555944 169 143 118
4.6255572740273792 3.2226096715138923 3.4955139985394323 72 74 63
4.7655975586860446 3.3142199582607530 3.5557965054573404 52 60 45
-0.3180528198580581 0.2494643453197863 3.1434884494091277 171 149 135
-1.1984721355776664 -0.0511944879108957 3.1409519676181454 43 9 0
-1.7144870911491010 -0.3086166668447507 3.3392641865483470 83 90 98
-1.3565861837115021 -0.1156261808392109 3.0934616098189163 211 160 68
-1.5608904165616351 0.0566400279933184 2.9392376119882342 253 252 248
-1.1938206039506756 1.0768802156689905 4.2858189874047170 60 66 62
1.0706145439515780 -0.1148803252048850 4.5299865515516879 53 53 51
-1.1863511696925442 -0.7662313023638786 2.7686764828109345 26 30 13
4.8746380289856193 2.2388184684665426 5.1856167794054215 23 33 24
0.8126907148201101 0.2686848043554715 4.0347776895972460 81 84 77
-1.2504882884877135 -0.6145148838211121 2.8252677824246173 134 89 30
5.3668197863717824 3.2460855113639062 5.1074489168412427 84 91 84
4.6694569641928405 2.8142135159727788 4.2968625598649615 3 8 1
3.3716494740822567 2.6468943404357148 4.8684457826433762 5 6 1
-1.3334453675124365 -0.3332325228999169 3.1013691499619616 162 107 17
-1.3032604291379817 -0.3235697456017341 3.0305453856640403 21 19 7
3.8925483086460404 3.1454753906316939 4.2147440055974386 98 111 119
-1.8873638970486155 0.6022090184949536 4.2483526478384830 112 119 125
-1.8726335088459818 0.8089038223241595 4.3738589152463456 117 121 120
-1.9795444678234246 0.7547696737883565 4.4389659878676611 80 80 68
1.2929096459102145 0.0423990485159667 4.4654919470752086 228 235 245
1.2131787780891308 0.0582100905321405 4.2470127960918562 226 235 244
1.1918849580042012 0.0610067120489525 4.3194337203194060 32 32 22
-1.0364256376618368 -0.8104580345555588 2.6677906828419733 22 28 24
1.0304181460510584 0.0806944620003262 3.9678568320944141 226 233 241
-1.1444620719880803 -0.7634719327855534 2.7604364956414935 21 18 9
4.1231778518812225 1.7021640991419082 6.1799593695064665 94 74 47
0.4819130564888846 0.0887147987205112 4.5042646142603999 89 91 88
0.4719256028599951 0.0903437375182910 4.4972391939479204 99 99 91
3.6714298158394709 2.1592695894688765 4.9213723470633912 145 151 147
-1.0121768220832783 -0.4168542951769824 3.7695427770749879 180 154 131
-1.2436250436371110 -0.5945191403445094 2.8238995694217897 134 91 23
-1.2432946136856942 -0.5499021641293410 2.8510747729268777 67 55 31
-1.1649953576216299 -0.5708470108179896 2.7467437795762244 106 47 0
4.9283819866907272 3.2138882555204655 4.6713187327676584 5 11 1
4.8865891121097009 3.2773821719662357 3.5886383726470505 2 7 0
-1.3232970251452219 -0.3700878076309744 3.1060251723112491 22 20 7
-1.4197692898551808 -0.3298509805741680 3.2411432701374898 166 95 5
3.9655755374652291 3.2915477901727805 4.1921415798340176 89 107 111
4.1864140736299271 3.5424941051504835 4.2132890392268889 96 113 120
-1.1735516703614626 -0.1314385567364832 3.0996875197253684 208 137 19
-1.8470084231522521 -0.2255085671964585 3.3581550274448237 182 192 193
-1.2450094413813804 0.1236868128298484 2.9453493879689936 160 19 12
-1.1185242340397215 1.0815535511272529 4.2028971287503492 118 122 123
-1.4304354284741594 1.5437552125025338 3.8449385296248524 76 72 61
4.8650336441231463 1.5479712325638029 4.4559082082307553 3 13 4
1.0620259513311492 0.3523281813308394 4.0925422275370655 167 167 167
-1.2658339327667609 -0.6612948814021985 2.7759386973748179 31 33 22
-1.2366887242069613 -0.6182757689773877 2.7620208848607124 21 23 10
5.2739761710017037 3.0557826444891836 4.6610335597322727 53 55 44
4.9765368707185464 3.2854901533008545 4.9052062501895595 92 98 96
-1.3271701848584716 -0.3468512011230691 3.2525595734521566 240 173 42
4.3851283814787072 3.8148314429029924 4.2826911613582528 7 10 1
-0.8473728780651762 0.5128904045401012 2.7484316966634759 120 15 11
-1.9414749256826858 0.7611219540963048 4.5528371156277050 167 174 180
0.5398145342938405 -0.2803006798146485 4.6581068015715319 178 182 185
0.9563000259364612 0.1179149078702859 3.9383504477919327 227 236 241
1.1202155612844493 0.2652258135919943 4.0843651929760556 37 34 25
4.9525170013777196 2.0846563854288767 5.0943951946360855 5 8 1
5.1418174449031744 2.8674498051758874 4.4579033699860178 3 5 2
-1.2274880630933878 -0.1245119421006816 3.0732025552488627 201 129 21
-1.8663970281742774 -0.2101721908524532 3.3559271724797011 186 191 194
0.6980667271098721 -0.2848314167669577 4.7034031836603063 29 38 35
0.5154743834604041 0.0136018189756660 4.9470897894167756 169 174 180
4.7924530669285970 2.1229419082243632 3.7429747005643317 64 68 54
0.7575923445454313 0.4254910135788578 4.2319921717742695 3 5 2
5.2095675961279335 2.9266219115613841 4.8001620673491088 3 5 0
-1.2523862809274462 -0.3986897889148897 2.9706703423160392 153 95 21
-1.4505921138611260 -0.2083799837185536 3.2155828559999011 83 14 7
-1.2982009752298480 1.4517254915355629 3.6687973208408504 75 76 81
4.5643097255583021 2.2303253790843134 3.6718680369853396 4 6 1
-1.2173173459536015 -0.6768332314936343 2.7060962657050514 180 121 17
3.3428027774493172 2.9407704313223073 4.7630687064232022 135 146 142
-1.3697192380526140 -0.3123780850684844 3.1470735419612308 26 29 20
5.2747178431603832 2.8185159647296296 4.7221062087530132 4 5 0
0.6993606557201334 0.5043630234972076 4.0677891750066681 171 171 173
-1.1312576176734273 -0.4743376738529806 2.9757273787586405 13 14 9
4.4924490623879167 3.3646290324996726 4.6167761381725674 5 8 1
-1.4163915849560573 -0.3200126700293149 3.2572455604248889 166 97 2
3.7847260608238145 3.8859241756715277 3.4119844959834076 1 6 2
-1.8290027207711486 1.0635329732060894 4.6008060219457354 150 155 158
-1.9031141874610085 0.7898669952852969 4.3965049806634262 82 86 85
1.9930353156339500 1.6342432563073275 4.8760104138361937 171 172 174
-1.5231038345924430 0.0501721378450535 2.9257364538309636 132 65 56
-1.4403144762718947 0.8594208848485091 5.0580358343602123 209 216 222
-1.1544807790137106 1.1843614898725112 5.2599397302052004 178 183 187
-1.1417546921288377 1.0438799295825878 4.1843418984343499 91 93 90
-1.4138665970654161 1.5486725236114212 3.8004373410231636 135 139 138
-1.2295304273652115 -0.1363183590723122 3.0487827282582365 218 152 30
-1.1823914661382380 -0.0948095672110034 3.0895521056198372 155 78 22
0.2794083278301797 1.9837020091399702 4.3383561670390209 47 57 56
-1.3882688484615131 0.8808723935532201 4.9460785510790952 223 230 238
-1.8651553113727599 0.6682041926364196 4.2145102687031786 62 71 70
-1.0977194645425661 2.0273806784537975 3.5785446483829615 125 128 133
-1.0813388381137006 0.9281581091448575 4.1680112541713497 52 53 47
-1.0530013650414172 2.1218088389929046 3.3559119140266058 126 134 137
3.9928999687399673 1.5092761778690291 6.6549739192014625 121 118 109
-1.1503573901101616 -0.4405439085372084 3.6240803891399254 207 136 142
-1.7571009407562326 -0.7113263278202738 1.0399945969852380 130 140 141
-0.5125161802974612 0.5041975967967708 2.9037570096148340 143 24 16
3.9293554567133739 1.6676858538546417 6.3690428658053602 12 20 5
0.0680421732767118 0.3125909058112341 3.3231568255333079 172 166 168
-1.4982467674042057 -0.2925121242859454 3.2946493632085594 160 72 70
-1.1420276661054893 1.0114542431653624 4.1713815397347025 41 40 36
1.4133668621427182 0.2972784051380492 4.2609761408207731 222 229 237
-1.2466409639843059 -0.5455011707289348 2.9568631480018572 92 73 40
3.6367868801849936 2.4438729630598286 4.6860613496282646 10 6 3
-1.4449195264627535 -0.3120629985795654 3.2667768415968639 229 158 14
-1.2405906077138755 0.1360070200265793 2.9678893834996778 169 11 2
0.5091009575959400 0.3657768137469909 4.0303506723309344 163 164 166
-1.2291690871869212 -0.0457702931266528 3.1251928000649820 32 1 0
-1.9275986681411315 0.8354774645156168 4.3508216904052341 73 79 77
-1.0111066019621575 -0.6699028359472311 2.7863941754581028 222 162 48
-1.3487683418390528 -0.1195771013917979 3.0774800295415581 183 120 14
-0.6769859182614615 1.1942603554766038 3.7326381607089854 141 146 152
-1.2284716403716207 -0.2642679422656051 3.1088369064095276 14 14 6
0.8006347786216645 -0.3383479630800350 4.6269366729839883 103 110 116
-1.2584074600413089 -0.4849788873755972 2.8993585156407118 49 32 12
-1.1331734634031605 -0.4057487278485133 3.7273252368352470 185 93 96
-1.2608669350906303 -0.4068778174626457 2.9226623510564602 70 21 6
-1.2595984055682741 -0.4067716771164755 2.9256733554140557 93 48 0
-1.3463320884458450 -0.3609164556255527 3.1342946517385450 83 42 0
-1.4186906459974411 0.0211385336195383 6.1027338743672477 170 177 187
0.7802990600038255 2.2897390957893249 4.1636989411456744 115 116 110
0.5636892431918086 2.3924211994369506 3.9272352681538307 169 170 165
-1.1604226182169779 -0.8641224048989137 2.7569187727450353 159 168 165
-1.1626971838399620 -0.8653428399670816 2.7522484343048079 167 173 171
1.3349490764726264 0.3083747096466790 4.2545925361939432 29 30 25
-1.1743249093049213 -0.4354962204301751 3.6581253417845647 183 97 96
1.3387132929983192 1.3004817708912761 5.0961164518743125 156 158 157
-1.2679264736082743 -0.4116737873383594 2.9436470664626269 154 101 21
-1.2100563901076118 -0.1199136882029562 3.0652473601429775 162 89 0
0.8143649921270874 1.5155618039028875 4.4176942214726846 162 167 171
-0.2097104597212172 2.3564064294173965 3.5929760278560328 136 139 144
-0.9891209800878761 -0.7912135261282566 2.7343676224105837 27 31 30
-0.9934072771563580 -0.7778825370096607 2.6935723360494386 168 172 173
-1.2531006448832689 -0.5424537218206023 2.9275655261795741 52 35 5
1.0690913396602426 1.2406780224472755 4.8376214724169806 138 138 138
-0.7518266393051827 1.1331787737866446 3.9442136912292063 202 211 216
0.6775408517664646 -0.3761711565729449 4.7505948081077056 169 170 174
1.2812704276157472 -0.0310520105212005 4.6892221435370178 47 53 51
-1.2027879817056553 -0.2776054102171688 2.9908311426286804 24 13 7
-1.4348344220504357 -0.2218292328941900 3.2048507124361962 53 47 31
-1.6786492239369064 -0.3135807382323153 3.2671566690209533 84 94 95
-1.1334581384397047 0.9134752758597804 4.1762782921259118 87 97 99
0.8781700012704112 0.0622129276694580 4.0986848483829803 3 10 3
-1.7395775340754849 -0.4257879583883959 2.9376785569507780 179 187 190
1.3191027192232547 -0.0110924956115777 4.6496557676355401 224 231 239
0.5475190559949081 -0.0849405373740613 4.4860291334368805 5 7 2
-1.1490087927732791 -0.2325964626812596 3.0691640951103718 192 121 135
-1.4497161712146722 1.7030143662738866 3.8410306036305890 82 83 75
-1.2202848716646679 -0.0022831755023338 3.1130857206663745 181 76 83
-1.2580825503681965 -0.4048744385237347 2.9505754493179204 145 92 24
-1.1626793124099650 -0.6365498854221588 2.7790334322778940 180 119 13
-0.2709392783518825 0.2167973103509592 3.3290108486793843 240 247 253
1.5897435441934011 2.1189033168185079 4.7882551361505934 158 160 157
-1.0533420957994482 -0.7647936147291917 2.8536038079839292 10 15 8
-1.3930741755383478 -0.1770843694073477 3.1310190791635497 181 109 7
1.8905632225570044 3.6246928403430356 2.6915876148313060 85 89 88
-1.1416155130918633 -0.9163429231332068 2.7631925963346360 31 39 28
-1.8202666201378974 -0.2277114308097594 3.3473009425722009 102 111 116
-1.1807041903566211 0.9570528346450431 4.1832620653288828 77 83 83
-1.8728583879818581 0.7635641259395228 4.2835857548100540 124 128 129
5.1047450659684506 1.1568191637947352 6.9700650589317750 80 66 40
-1.1598644025114300 -0.8796531346134419 2.7733566926021616 17 27 16
-1.0680986510670198 -0.7798620848324478 2.5958150012987309 11 17 13
-0.4184810147965911 0.2798020764850278 2.9986649155426748 162 23 16
-1.4126480209473404 -0.3222385247668838 3.2755760192382155 166 95 5
1.2610809657842845 0.3136661862708816 4.2323974488303469 37 35 23
-1.4814275718682819 -0.2690436740259841 3.2582685098290933 175 56 52
-0.2209462923214129 0.8214609430460837 3.4165396178928988 167 16 9
-1.1572008262930835 -0.8922441425410760 2.7188254799145706 22 25 16
-0.4451320829328241 0.1979330766326719 2.8471110765134533 3 5 0
-1.1367594830307184 0.9939044804909078 4.2592854322282063 61 60 58
0.3294439861433778 1.9317959919225987 4.7435141124208844 157 163 163
-1.3688646462852370 1.6581263492943137 3.9119038344479682 80 89 86
0.7805551162746355 2.0736208159290821 4.4685749615080139 4 13 10
1.5002487604235293 0.3736125149430471 4.3327660894168387 133 138 142
3.9029919500241754 2.0108855843735984 5.9622299391491982 97 83 56
3.8581307725847709 3.0906287162124930 4.2203085626514767 0 10 2
3.8307289210463016 3.1900259509093871 4.1599357143377054 94 113 111
-1.4672061363167734 -0.3042305133619218 3.3094516812025403 151 79 21
0.6600762701564381 2.3198815255530394 4.0658810780793671 130 131 123
1.0621016382668866 2.2480012224637660 4.2288416101522177 33 39 35
-1.2892566650619932 1.6741430218563562 3.7315912073743287 59 67 86
4.3764435295661128 1.1191112569535908 7.3944344814731133 61 47 34
1.3854840654569238 2.2468651471842644 4.3687761261166447 18 24 12
-1.1449810931620887 -0.2753226378943481 3.0424963040087580 151 70 69
0.4689069479645879 0.0817181516501993 4.5925619420590866 7 10 3
4.3696990050076607 0.9577941517548546 4.9112657703484359 71 58 24
-1.1978047114234522 -0.5794367787866922 2.7825316121175829 182 119 13
4.0857551528632472 1.5412374298364566 6.6462610314599901 105 102 93
4.5119960491341242 2.6831888152113379 5.3684795794985236 133 134 116
4.3904476424927159 2.7060777327945549 5.2953483256781944 131 144 135
0.6503866115368153 1.5665988059843095 4.9555340659368543 15 23 12
1.4051360947604026 2.9206451631501356 3.6049848810282841 109 115 111
4.3891327797731146 0.0579569452794182 7.3583047074752246 113 94 64
-2.2106634769204883 -1.6364207992978674 6.5843281757947301 159 168 173
-1.0867023603134249 -0.8134196019509620 2.6538300272696036 23 24 19
4.3421907461989129 1.1612002344188397 7.2565835288770693 65 50 27
-2.6060227606190547 -1.0402597631205137 6.9288553710846958 143 159 172
4.0275715094034990 1.5622937323127359 6.6252323607792727 32 34 21
-1.6730001899209324 0.6366952114316106 3.9016996227890890 249 252 255
1.8373115162119957 0.3148264895823350 5.2560861068894686 219 222 227
4.5535561906815873 1.6088113863482409 6.7501046463232361 9 11 0
4.2120354282865708 2.4215806522234558 5.4777911066115434 77 90 80
1.6742877838208832 1.4304948432666069 5.6139110041119560 75 79 78
3.9331276409583880 2.3361578018016478 5.4627051085128784 145 158 149
-2.7654521382215838 -0.6770997212957754 6.3226230804580821 37 45 47
0.9564692034773900 1.3072637319460025 4.6968131874301093 110 115 111
-0.8316215677291577 0.4602686300696904 2.6918591372668761 193 63 65
-1.6247370907487204 -1.6804297704425701 8.2963657449739685 36 38 35
-2.6517366854631250 -0.9461416632441140 6.3034394661164885 166 177 183
0.6450659589543586 0.9779167320004534 4.6668160405651857 90 91 83
1.1089414925004093 1.3063574072957256 5.0936962672213415 5 13 2
4.4218570275793541 -0.0222418648058905 7.3148202277174468 38 27 9
0.9209087306896955 -0.1805920258828446 4.5958707725346386 76 83 89
-0.9986961974691191 -0.3269300188199387 3.6645009690032651 22 23 15
-1.3726972424909776 -0.2525145353888407 3.1536896081526509 30 27 18
0.3343830190146190 0.1037068013910919 4.0639083873950694 3 5 0
-2.7051764099276627 -0.6912775390645185 6.5236900967530573 182 190 193
3.9773411305637034 0.3012851690354239 5.6060039461937841 162 126 64
0.2370989858189440 1.8284582137850720 4.4975555095794952 152 160 163
-2.0908878494391057 -0.4115989487328865 5.1321061060243762 248 252 253
-1.3132765735900218 -0.1941114856424441 3.5376742374918146 25 25 13
0.8279060821450909 1.5978702464775998 4.8977366326010667 47 49 44
0.9657448819853739 1.7143019933535397 5.1579592413613184 47 49 44
-1.0798667460472375 0.9843259065758964 3.9030052510569049 128 133 139
0.5755040891568882 1.9136459992496910 4.4840439781892778 42 44 39
0.4291191558387998 1.9784014142772699 4.2972052068955966 63 65 62
-1.4290566947453105 1.6326863127969558 3.7850225036282290 234 250 255
4.7936846786667138 -0.1831923701136697 9.3953484805385745 182 186 187
5.0441188849134670 0.2365289983906659 6.6621010125786402 29 21 0
3.7592377831242900 0.7976906880715644 7.0837987169222778 67 68 60
-2.3735075837701762 -0.8180160814850189 6.7942200912579187 161 166 169
-1.1128214113765003 0.4330355685707828 2.7873178700452406 185 80 74
-0.9358140176014669 1.2637550498957619 4.7198629479791201 122 128 128
1.1289635879648072 0.6092820050945675 5.1608808557102854 4 6 1
4.0279251966098473 1.7382815604847104 6.3907156579778333 17 21 6
1.6220162040790547 1.4455965004629512 5.5579668116205090 76 82 78
4.7793353641429910 -0.2361411773808777 9.4857230476440098 104 103 101
-2.7682480372557876 -1.0824639807049139 6.4941964721940462 87 101 104
1.2132735449497538 0.1630893742219157 4.2177297943479068 48 58 57
-0.8200072105922641 0.2735111850864387 2.9483233423434916 203 102 108
5.3114771268731005 -0.2274168263356994 9.7663600877803933 28 31 22
5.0488389949653509 -0.2243902093650544 9.3717674546348633 28 31 22
4.8971213558954494 0.0803065878658858 6.8598920086414710 14 7 0
2.6514577006072471 1.7123301146881338 5.6616794299753987 119 121 118
-0.6227256580692703 0.3011338275576554 2.9463807796177552 212 132 143
-0.7308853335881169 0.3008647761943582 2.9100734725841453 200 105 111
-1.0690925962334989 0.9126911040972769 4.2502870343746224 68 72 75
4.1233745861271371 0.1604875369709584 6.9803947272884797 174 141 100
-1.0424027931736015 -0.6484783789677613 2.7100616702300688 149 95 21
-0.3708032549389907 -0.4120268015784786 3.9717820636708039 143 69 70
4.2235711527079065 1.4459255524796621 6.9172306123731779 16 19 10
-2.8262501338016386 -0.7338284633457698 6.1749651193884381 85 90 86
4.2837849468268860 -0.0599336415747269 7.4012312265678073 51 43 22
4.7600640921372293 -0.0020587445142812 8.7656732977754999 168 166 167
3.9099204280750275 0.2376104925616692 5.4225329918069995 156 124 63
0.6753434239805649 -0.2386572644522970 4.4547694522481533 4 7 0
-2.6299071711523161 -1.1366489374761899 6.0453575435395921 157 171 182
-2.8646239819401256 -0.5680401289958371 6.9866986766326757 168 175 181
3.9428630343934077 0.1481709427285019 5.1430127390782383 77 59 13
0.6402175019336092 -0.1523083203656370 4.4888882773009593 61 66 69
-2.5673640412383270 -1.1046722123172423 6.1729685851728648 29 31 28
-2.5781059799849695 -1.1129746682513306 6.2194046226799280 29 31 28
4.1310400776924059 2.6360692490578641 4.9026224325968819 107 117 106
4.5163092559001852 0.4156445129825891 7.1011303294677388 119 89 51
1.2656779252453314 0.7994017498437834 4.7692570662931351 165 169 170
1.4840265312094238 0.9051363591619018 5.1113828331406017 164 168 169
-1.3587866838472655 0.7677923344421815 4.7354305210887375 169 176 184
0.4805979449108783 1.0363147207825738 4.6658877934487526 2 4 1
-0.5683617659456046 -0.9568666060574846 4.5739608193599564 141 145 144
5.2948370384232097 -0.0664732826286533 6.9345011474364684 119 94 54
-3.0005832088135325 -1.6975536184387492 6.7476548368575218 144 157 150
5.2492715841371558 -0.3401666203753093 9.8351567335041690 102 104 103
-2.7487347195696903 -1.0481051441805658 6.2202337817791795 34 45 39
-0.2754148061910561 0.2674326725593725 3.1303501525488322 183 156 135
0.7108851998868230 0.6798364357927115 4.9167281703123225 12 12 4
-1.2267355679649632 0.3634385064557475 2.7546369700382352 183 74 69
1.2679949288526444 1.3018560520769649 5.1376238055509651 28 31 20
1.0809311666920591 1.2158392115122978 4.8475860703630724 116 125 122
-1.0061407127985873 1.0187000508434345 4.2397414761618135 57 61 60
0.5361982293810192 1.6072615531109395 4.0792147447521874 20 22 17
0.4277835270995038 1.9787216039294173 4.2933207436645953 63 65 62
4.5828627060157157 -0.6933182654042027 9.5653527375814722 33 38 42
4.5527837959544826 -0.6622378407421998 9.6668594617685866 70 73 66
4.0836761291269248 -0.0443832158822142 5.4630098194382928 22 14 1
4.9363560944488061 0.0385987986146034 6.9583544404635225 154 123 58
5.0701479410581562 0.1347102304258312 6.9749917614573347 15 10 0
5.1302850253810064 0.2024825100786684 6.7811733607468003 113 107 91
-3.0759214350807826 -1.2398744190139561 6.4386005758144798 45 57 53
-2.7724470473125860 -1.0487276016101981 6.2308518732797298 147 162 159
1.1722893095115063 0.1588859109288982 4.2484002700730965 218 227 236
-1.4002868098575749 -0.3073515773074570 3.1856004842015033 167 114 36
3.7422403651026408 1.9257560030994167 5.9001768300658446 102 103 95
-2.0438427058003907 0.3480246091569149 5.4462099176548708 153 181 185
4.1053609154524668 2.4181286138765610 5.3665110616927088 88 99 83
6.2131086868783125 0.1000797764624256 7.0903061839893633 57 35 0
5.5260488012219513 0.4178548245754280 6.7013136540590317 139 105 57
4.2465773245595662 0.6692242029538930 7.8628231577850034 88 82 68
-1.2434106871979838 -0.3870688676948876 2.3040184830008399 34 43 40
1.1212679112756814 0.5658915683921327 5.3540628284694858 149 160 156
4.1891943376147092 1.5499462619988722 6.6512487469613095 104 105 97
0.7152645877952750 0.6732461001726486 4.9842411625513989 110 111 106
1.3470493920484388 1.3869184018584972 5.2974164364467944 47 52 45
0.1086200825606926 1.3530556577843840 5.0490566059939859 104 108 107
5.6141317875595105 -0.4960721070088785 9.3562507810913260 162 158 147
5.3529120333892504 -0.2388945835987395 7.4789804896708141 16 7 0
5.0612249018484805 -0.4252257767645497 8.5299474549669458 36 31 12
1.0053288535584506 -0.8723140885745304 6.4565456905329102 144 153 160
4.6443347894407729 -0.2387925670526998 7.2424117224509112 46 26 0
5.0036541875219971 -0.0753825644191215 7.1431535466230214 41 45 44
-2.6850031408971433 -1.0477873473131412 6.0904808028455939 92 104 100
-2.8585172849370557 -1.0293129527602012 6.0986451486463062 166 173 179
-1.2845933282835909 -0.4494528574841688 2.9837847117093559 180 106 33
-2.7539489369150263 -0.9827375524890299 6.2310408838683973 93 95 92
1.1502925185223523 0.5591462120946545 5.2913361335339637 6 8 3
-0.4207063902616620 0.3203149680563901 3.0961727567170092 203 112 119
1.5172655459791256 1.4001442643739079 5.5332034521155240 149 157 159
-1.8447342409736309 0.6529816457686176 4.1871764367807414 68 73 79
5.2849221129820814 -0.2272109155094671 9.7290022750645537 22 32 21
-1.0333097580332022 -0.5730025589240856 2.8532184533102973 136 88 24
-0.7574961870300273 -0.2283099559276340 1.0141345066863907 165 172 178
-2.8026731757571306 -0.9641739031983270 6.1699582844099670 101 103 100
-3.0959367154036230 -0.8212175251616808 6.4915291081661239 130 146 146
-2.8571657427147361 -0.6066093070155367 6.2748734550025045 154 165 169
1.0822719968205772 0.8230138474356481 4.9898274555131019 13 15 4
-1.1226771564710338 0.9502094312996958 4.1756081465852368 43 44 39
0.6204443132986613 -0.3010379178257754 4.7971676860292272 184 190 190
-2.9003673994854422 -1.1487980440386620 6.2213410793769057 147 162 157
1.3913525769110593 0.3291718349045141 4.3924303085458769 32 38 28
-2.8560562639635534 -0.6629455128253970 6.2523317697971006 28 40 28
1.2053576295250727 1.0072249839363296 4.9045040094472299 156 162 162
4.2284036471539990 -0.1626633518325347 7.4869768880964571 138 113 73
-1.1299099641786261 -0.5644266908565689 2.7840308922566828 165 100 6
-2.7868188738810442 -1.1465868568439692 6.1731647683792605 101 111 113
1.2765327750231674 0.6906639334631154 5.1277108902637893 180 181 183
0.8087568013427818 0.7759159236058663 4.7790541082023008 11 14 5
5.1069947544499747 -0.1314081263188516 7.1019889201435413 231 233 232
4.3413694968979648 0.0437715929171676 7.0454144668360845 196 158 96
4.1688927148470833 0.5502302111142940 5.7085810471739826 3 5 0
-1.4252322000674418 -0.2957101387392703 3.2629153649322689 214 146 9
1.1844105258076822 -0.4102754499383077 6.7684724065710506 169 173 172
0.9329331841436364 0.0679893690177476 4.0004008570532905 7 12 5
-1.2675164580723308 -0.4185343048939179 2.9542604570802600 166 109 20
-1.1040541292083614 0.9851472413836719 4.1907022384448398 73 73 71
1.0984464595629948 -0.5677760017504715 6.8711848772846702 121 126 129
5.3679256383928573 0.5649066217559274 6.4253945280840661 25 6 0
-1.2641632249832344 -0.6137632276709972 3.1883711130186949 186 191 195
-2.9676112125641989 -0.5571264911431579 6.1952247310761290 166 177 181
-0.9663781465362966 0.9502829676694536 4.3527948770692459 160 164 167
4.4181110514363837 0.4469729183080768 8.1274683784248598 21 22 8
4.6444783266275511 0.0385281416291928 7.1332621727758312 183 151 90
-2.5287000346542312 -1.2764241963825003 5.6956973775958790 166 176 178
4.6752069254843684 0.1275621362657563 6.7203832353821236 168 136 79
-2.8418705413788743 -0.8686295704726313 6.3400808944643057 58 67 62
4.0551796399653552 0.4714564779299490 7.1914773253880666 117 90 60
0.0710714847984948 1.6807289128848004 4.5853644478839763 163 168 171
1.6048430021567734 2.5473962616501327 4.4924589408762294 4 9 2
4.3704500674264262 1.1391340883376595 6.5461952140704742 62 43 11
0.2793292672807838 -3.5109824549284543 10.1831208559925877 119 124 118
-1.1502146791049657 -0.9161956060783653 2.7736788540624966 187 194 186
-1.1031779111675724 -0.8707536052795363 2.6372624145875836 144 147 136
-1.0695370275882190 -0.7997794674865356 2.6227961633014671 38 38 28
-3.8919021958151032 -2.0529502070284043 6.7719581903831028 156 166 168
0.5601941908678304 -3.0962810619718986 10.4600425216336674 84 89 83
-3.5155721652850880 -1.9273051819618634 6.7626669970561535 32 37 31
-0.0038838483681861 -1.5076252105207282 8.8823793949511458 166 163 158
-1.6754335391714206 -0.3038589682097115 3.3510601704679730 24 20 17
4.8025219570440667 -0.7882992165795342 9.6722502166129320 130 131 126
-1.1304229271946173 -0.1208623844759403 3.1590418945873142 222 158 50
4.8432688361191722 -0.2205126455653738 9.4417603409696618 41 45 31
4.6013134977993762 -0.2176896382401218 9.0226474083656445 68 72 55
-0.6334845531762667 0.2560653768030685 2.9064720961002686 197 165 144
1.5495023296260118 0.1715848864680199 4.5376379229709176 203 207 210
1.7317507154759690 0.2088205674211769 4.8300194261309768 78 78 70
1.7913737174441420 0.3181258095242572 5.1906618739281223 70 69 67
-0.4067965604143460 0.2664275762463066 3.0671917558732460 180 150 124
0.6631062122389056 0.5281916675973326 5.0645080202502175 66 67 61
1.1056755246421297 0.6567137350939308 5.1548921099142353 84 83 65
1.2327056537774828 0.6927607799370508 5.2338854793624927 114 121 113
0.6938749188847227 0.6903568504448194 4.9563158643123906 96 81 74
1.2600370825914460 0.7138977859009084 5.1503559102687202 11 13 2
1.2271303769884105 0.7100286598631490 5.0460652181778114 116 118 113
