ply
format ascii 1.0
element vertex 704
property double x
property double y
property double z
property uchar red
property uchar green
property uchar blue
end_header
3.9968814919925588 4.0732488116927623 3.5188774878575426 1 6 0
-1.1275164105829640 1.0217436448423556 4.2971289262988446 61 60 58
0.2756318574851890 -0.1809497078298436 4.2587670793537633 7 9 4
4.7005387225223734 3.0827594275448242 5.0150607582100495 106 115 110
4.3632712019998880 3.6944583352781870 3.9860029231876126 3 5 2
4.4754399404274299 4.3533043422523665 4.0442170649272544 106 112 108
3.1588211499035230 1.1864701255003829 5.3645552826845577 8 8 0
2.0432918788554781 1.6678224037899008 4.9257926911533936 171 172 174
-1.4148771562723903 1.5453222980376393 3.7961785156055803 135 139 138
-1.3206727902857216 -0.3868398031438982 3.1486590349657062 214 158 47
-1.1637236735579284 -0.0722893593177458 3.1481205779967860 155 78 22
0.2897431621495182 1.9961539337670386 4.3562702701377036 47 57 56
-1.3771449646368987 0.9141389950016792 5.0253593088531634 223 230 238
-1.1122682324285158 1.9888420333572734 3.5347649459796986 111 115 116
-1.1122682324285158 1.9888420333572734 3.5347649459796986 111 115 116
4.0843244937933196 1.5058434276660406 6.6574628435962389 36 37 29
0.6295672877091955 1.7600024583451519 4.6011427311344528 30 32 29
-1.0535181240558948 2.1204976090162786 3.3545550573988336 126 134 137
-1.0535181240558948 2.1204976090162786 3.3545550573988336 126 134 137
-0.5103096482143384 -0.8788555351480767 7.7367207286205870 174 165 158
-1.0631438010422531 -0.4252842630939702 3.8700961573134824 79 13 0
-1.1128888804952126 -0.4509938630673611 3.7217092513234222 79 13 0
-1.4981032693934495 -0.2924067818013224 3.2950090252234054 160 72 70
1.4538493865289677 0.3074886036311959 4.3082534159303707 222 229 237
3.6409021234133645 2.4469795443307936 4.6888705615942712 10 6 3
-1.3489624669198415 -0.3730632478413694 3.1460291710942818 239 178 51
-1.4819588641155048 1.6063465424185641 3.7161515492438459 71 71 63
-1.0072369737248414 -0.3837207439488239 3.7753150641841806 235 239 248
-1.2288524125696492 -0.0452476618572366 3.1270597332341832 32 1 0
-1.1862742914828857 -0.1777857702011181 3.1248789002478010 21 21 19
-1.1744610887673936 0.9043083407764058 4.5273889333371589 180 189 196
-1.8302221906482652 1.0814167037161357 4.6361129719458045 150 155 158
0.0443006539039087 1.6432442163640057 4.4824109606990161 163 168 171
-1.2247852238811441 -0.2643134526238482 3.1138861778479185 14 14 6
0.7996564880241095 -0.3387487260423001 4.6244997072000551 103 110 116
0.7748056855946256 -0.3428943985636186 4.6361453617342310 88 98 108
1.1838346972593321 2.1555068704153832 4.3486798015758366 46 52 42
0.5629094987752129 2.3925803916474537 3.9262632585869857 169 170 165
-1.1600357810107633 -0.8640075339213421 2.7576289447244280 159 168 165
1.5303290405620658 0.3827109763370373 4.3714319113448425 134 138 141
0.8438269374655362 0.4459033980448023 4.2455133427548288 82 83 78
-1.1987337381039220 -0.7485211922938342 2.7761112013820335 174 114 28
-1.0805093847160183 0.8795453254413460 4.1500859436800956 59 61 60
-1.2524545492044290 -0.5478057703575885 2.9425407694457522 92 73 40
-1.4969767768881612 -0.2707475542553386 3.3675360198606952 179 66 68
5.4604412504339592 1.5027326709026936 7.3526146798856251 5 8 1
4.9599424942243431 1.3435325793100139 6.9035553293923906 21 12 0
-1.0291195834322484 -0.2528327620270759 3.5255279775857233 88 18 10
1.5814690217279674 2.1181751402807771 4.7815611482842453 158 160 157
-0.1300383779733128 0.3153657424521913 3.2698045104192746 169 139 113
-1.4000295595095156 -0.3081704071963038 3.1951614324991682 148 95 25
4.0774899739149788 1.7127471844557796 6.3725331688314180 104 105 100
-0.5074069460857602 -0.8811869880841914 7.7440284812667022 174 165 158
-0.1274170443284387 0.2677926371573859 3.1983568335106307 175 151 125
-1.8742820968935161 0.7637664361753207 4.2825778117615787 124 128 129
0.3301196914569834 1.9320862678806396 4.7446431199194725 157 163 163
-1.3204067406781488 -0.1125307415912569 3.3668150934085990 181 109 7
1.4209877091028116 2.3310622593171906 4.2674283346848956 30 40 31
-1.2740542320099373 -0.4623823893310564 3.0009811581548571 124 76 30
1.3931133796963646 2.2554461569432167 4.3830891883324163 18 24 12
4.0683837249287933 1.4703184165586969 6.8192156135343813 116 116 108
0.4579166338302406 0.0785925300889622 4.5747050369267965 6 13 5
0.7605708417539566 -0.2601225888722890 6.7755816813174858 153 162 169
-1.1070744548014084 0.9812181998626233 4.1780531321670704 72 73 68
5.0480469421156213 0.2383084949497765 6.6692868217281625 29 21 0
5.1077568592124791 0.2403405982126448 6.7300923184872277 29 21 0
-2.6753948274863832 -1.0901159798502655 6.9955624281113868 140 158 172
3.9966425234544034 1.2704223957902938 6.9004719608660556 136 129 119
4.1040993965185031 1.5469269732413853 6.6692856374387706 105 102 93
4.0799774235763318 1.5424760571539673 6.6384945677355640 105 102 93
4.0598223210045328 1.6584020207925489 6.3635113075743890 105 101 89
4.1673734761705488 2.4535527757749405 5.4305753422959855 92 98 84
4.4921234673310000 2.6714846109492836 5.3508457386661510 133 134 116
4.3832303813125062 2.7012680404735105 5.2887405402058079 131 144 135
0.7103488221152879 1.8192769034770149 4.5834943095378717 48 54 50
0.5656401107679709 1.9017738234797719 4.4614306462608608 42 44 39
0.4887700710673348 1.8504546020780890 4.4358741419504408 51 54 45
4.7935870225450090 -0.1843149548850583 9.3953966142052980 182 186 187
1.3261989797321345 -0.0991856299448940 4.6929237162695197 245 250 254
4.5266620620858449 1.5969654388435663 6.7197289703942262 10 11 0
4.2210752227078334 2.4282165331062933 5.4867136474474103 73 81 70
4.0131078440357708 2.3814166109197838 5.5426174046816401 128 139 131
-2.7580228118270695 -0.6755449308914069 6.2916122251489082 37 45 47
-2.6504811403479769 -0.9481934608289293 6.3113674312512895 166 177 183
4.1922978628834748 0.1455851519625657 6.8862079885642951 50 36 9
3.6941400891210749 0.1161537191956013 7.1906525412076832 135 109 82
-1.2307984074875817 -0.6452149904312264 2.7633293885704822 195 132 19
0.7196474441091215 0.8039814627324717 4.5481522244673185 93 95 84
-1.3731249465184530 -0.2521790755301511 3.1529603662496166 30 27 18
-2.5748968023434404 -1.1112708889654010 6.2170795585213314 29 31 28
-1.1364716376964101 -0.8545076546322157 2.7067357638186595 11 14 5
4.9833399509302936 0.1125343885791984 6.8336329179736772 141 143 130
5.1580447869282118 -0.1567666129267888 9.5894063877303015 143 143 143
5.0702659213149097 0.2027855908689947 6.7123029020329836 113 107 91
4.1255385458472915 1.7745953091668987 6.5127436443041287 30 32 18
-1.7107433251837203 -0.3069685597845208 3.3412386807051071 56 61 67
1.1608718245343781 0.1875360598599496 4.2601705625922204 82 86 89
1.1612231534985440 0.5626209698297071 5.3174798004168977 6 8 5
5.2854495922069038 -0.2257948872454761 9.7303134504469000 28 31 22
4.9518084022927891 0.0809892194974057 6.9313685700569785 14 7 0
4.9518084022927891 0.0809892194974057 6.9313685700569785 14 7 0
0.1539869164446325 0.2546558070143526 3.4628006575854391 22 28 24
-0.4239297042824817 0.3166664426922211 3.0733117823348350 203 112 119
4.2274825695826124 1.4474678094775644 6.9222452518290503 16 19 10
4.2841104913456203 -0.0562440417565205 7.4044831129269486 51 43 22
4.7537160486485952 -0.0088855915424693 8.7514916582908260 168 166 167
3.8859171978144365 0.2369986944771313 5.3974021151132634 156 124 63
0.6802658550144676 -0.2373104211682626 4.4617188575098110 4 7 0
-2.7377003871380401 -0.6698917422436742 6.4387899614948116 168 175 181
4.3119387037708830 0.0421427244685628 7.0038405636705248 196 158 96
0.6440424911909097 -0.1521035113010383 4.5025665249036999 61 66 69
-2.6832852768728426 -1.1635588226501703 7.0612813872137288 144 157 174
-2.6832852768728426 -1.1635588226501703 7.0612813872137288 144 157 174
4.1152067971077200 0.3267082485049491 5.7715419893529267 162 126 64
-1.0591522655952965 0.8049641097552934 4.2074440548734948 87 21 9
4.2322814387787471 0.1257673481059224 5.6569798942869092 20 14 2
4.5109442986501564 0.4170391453562056 7.0940559255496529 119 89 51
-1.3577458038374146 1.6012940170822141 3.8056708157627233 80 89 86
2.0591567754959961 -0.0139542820016093 5.6033103111770348 182 186 185
4.0248103450267205 0.4682668977542857 7.1434124175573190 117 90 60
5.2966778445046092 -0.0663620778865264 6.9363820626986392 88 66 29
5.2966778445046092 -0.0663620778865264 6.9363820626986392 88 66 29
5.2909777257515920 -0.3418004291487596 9.8991170894642657 102 104 103
-1.3929226932627543 -0.5760745606699792 3.8647684676435339 148 37 30
-2.6753948274863832 -1.0901159798502655 6.9955624281113868 140 158 172
-2.3725378875645804 -0.8154892111903086 6.7882400998628709 161 166 169
-2.6319833987145884 -0.8563685282078880 6.3534764487322493 150 155 161
0.7106980862678890 0.6797711200893488 4.9164240026730806 14 14 6
0.5464921270936532 0.7342246471041314 4.8860022418809343 188 190 150
1.3673153539580556 1.3459488441930483 5.2107507396719042 27 32 26
3.8110145506798738 2.4121173062404848 5.4429159311048778 74 77 66
4.5262653085927242 -0.6582132113059715 9.6224910461901665 70 73 66
4.1438581232027341 -0.0416401072560931 5.5219024924923499 28 23 3
4.6184187538615493 -0.1930945335502145 7.3143069104865654 173 164 149
4.9652017132804609 0.0384469282322272 6.9983992191727413 154 123 58
5.0439641882398876 0.1335078971099621 6.9412795321501894 15 10 0
5.4075469277867656 0.4157396470855073 6.6459472685135887 49 29 4
-3.0664773537703685 -1.2292191680724833 6.3829794942659754 43 58 51
-2.7713002138910894 -1.0471740708084565 6.2230062654868412 147 162 159
1.1677902642952591 0.1582676721591350 4.2411656739672914 218 227 236
0.5494080229949220 0.7087110178611060 4.9111576642319505 39 37 25
3.9106298537994268 2.4046185622461187 5.5196013359035012 78 89 81
-0.9830611622387687 0.8331014547429800 4.2787014477842469 138 138 138
-0.4095029554925598 1.2241718443693439 4.1693022479103394 84 91 99
5.3898115471450030 -0.4522421211183967 9.3104538147338367 127 117 105
5.2192910304873594 0.1362758672281316 6.8274394070005773 99 102 93
5.5190254929982041 0.4189384458981449 6.6941486290097378 143 110 57
5.6076468802965440 0.4263582013896381 6.7878257835721278 139 105 57
-2.6904898344864279 -1.0479762585844365 6.1156448302916679 87 101 104
4.2453310411465566 0.6696690252933107 7.8618822493919476 88 82 68
-2.8239330768771902 -0.6395673558711581 6.4418358817458676 148 155 161
5.3323998905933552 -0.2357183853966572 7.4511635484705820 16 7 0
5.1587017194987155 -0.4286744644276372 8.6731106590312113 36 30 18
4.6722132231245403 -0.2409313007939958 7.2801677132030269 46 26 0
4.6631867424558511 -0.2513124214067711 7.2618255133351006 35 25 0
5.0227544972666918 -0.0740276518091348 7.1699220829409436 41 45 44
5.9565129373986059 0.1702018632673702 6.8948991098017158 69 47 8
5.0521354404763503 -0.0675623331080276 7.2941615455514963 221 219 204
1.4238184501210516 -0.4894162783944023 7.8008784045051502 26 35 30
-2.7484702703653690 -1.0289544041945302 6.2440371177159752 20 30 19
1.5911444920490347 0.1604837058277107 4.5663339393652587 97 96 92
0.7174755144954597 0.9173517319366752 4.6285047379596227 3 2 0
-0.4532182415102675 1.3653457277350733 4.2593821367576572 63 71 73
4.0729807363870867 -0.8998683304957565 9.9542019222038345 138 132 120
5.4037443573904529 -0.5242427194032925 9.5163320166426217 204 195 186
4.6319833554817960 -0.2744089269588423 8.1463805225906167 30 28 13
4.4279532351600830 -0.0210126691056744 7.3241301526790563 38 27 9
-1.2443360616188486 -0.5476747382677145 2.8662233495127687 87 66 35
-3.0048541944950999 -0.8632343169118231 6.2384080951766911 41 51 40
1.6360036095430912 0.4752889665860411 4.4295504640742989 111 108 103
-2.8648278039952357 -0.6121513470133194 6.3282903398138686 154 165 169
1.0835014625570243 0.8238240985571347 4.9924165560529570 13 15 4
-1.4481300227490141 1.7011875251292141 3.8369073929791830 82 83 75
5.2767405907486813 -0.4293157487622976 9.5505942415023792 89 85 73
4.3279127503305777 -0.0295412217267634 5.7864548934855735 144 108 34
-2.8593101420646749 -0.6672776660654913 6.2629992309820004 28 40 28
4.0135856533371603 -0.7335038293310759 9.6041758709023135 130 123 113
-1.2408890126767955 -0.6180631591266489 2.7701223993769171 32 37 31
-2.6282893039410369 -1.1397564844524026 6.0418210824587026 154 171 178
-2.8220558134264664 -0.7292913520895677 6.1584442291394970 85 90 86
4.7777008184856884 -0.5961910556258236 9.6248282156628928 187 186 181
5.1386930235977788 -0.1312876143950678 7.1418074682275838 231 233 232
5.2280580634134397 0.0656780785444886 6.9752969212174438 165 169 168
4.2911881402781322 0.0423233117284397 6.9763394166385098 196 158 96
4.1290756572406506 0.5443439257030029 5.6639409249539732 3 5 0
-1.4233418584530380 -0.2971515777004481 3.2272744696426106 227 155 17
-1.0477375277073959 -0.6313489199622720 2.8617010413114001 161 102 10
1.1368426215605592 -0.4096298629002514 6.6450716427583254 164 167 172
-3.1731517037868024 -0.8382604035302860 6.4176726119488201 173 185 185
-1.1090681243138978 0.9834654868915761 4.1758999560671599 65 67 64
1.0542829699956218 -0.5763168301170920 6.7483071365743594 121 126 129
5.3834979183330161 0.5666812955867724 6.4405116986319211 25 6 0
-2.9588067274120715 -1.0539770264124089 6.1757615784879052 181 191 192
-2.9502662419281540 -0.5535379376095696 6.1219878088699682 180 189 188
4.4254924968767737 0.0879574424390114 8.4757776085314411 186 195 192
4.6683154700002172 0.0376213900366002 7.1732314620346074 183 151 90
-2.6455104945559742 -1.3423551176140007 6.1259892870500572 161 175 176
4.5560856376760634 0.1258583025252248 6.5826830938897212 171 141 69
4.4213849051079865 1.1526742978416120 6.6019651731305764 81 57 21
-3.8664823608815038 -3.7503679260308238 10.0473245786088938 124 130 130
0.2763615416643941 -3.5470648446261461 10.2735492826340629 119 124 118
-3.8938228270379329 -2.0517544335900149 6.7739554977047121 156 166 168
0.5596375623893097 -3.0942153511075992 10.4533182140300447 84 89 83
1.1514888836139232 -1.7114129964619760 6.0554669046352378 30 33 24
-3.4878926733088682 -1.9097726970828608 6.7212175797507330 32 37 31
-0.0058606521565523 -1.5073861824909240 8.8739299819141575 166 163 158
-0.0058606521565523 -1.5073861824909240 8.8739299819141575 166 163 158
-1.2020909661932719 -0.3288671400307865 3.2214112837826492 27 17 7
4.7943077123648843 -0.7884200880520241 9.6596939636636279 130 131 126
5.0201983729397144 -0.5105164781160120 9.7176634716530561 157 159 156
5.3019809248804677 -0.4475861628463081 9.5791313892267933 60 49 31
4.8475872133646423 -0.2206616946609600 9.4496347752826271 41 45 31
1.5365344084054058 0.1695362455402414 4.5065883782784271 203 207 210
4.3332413074789375 0.2989936737406126 8.0678121007230299 36 37 29
0.4483267460686008 0.3477354851032388 4.8442481697809683 177 185 188
-0.3099205407041017 0.2859151924046643 3.1986186800507190 35 10 3
1.5148304630645832 0.3519623201845107 4.2944810498993293 178 179 171
0.6937501338882974 0.6924447957292664 4.9529536240422614 97 77 78
1.2526299114128161 0.7045289652454177 5.1102492336666225 11 13 2
0.5978932711803864 0.7753662622289078 4.8431625771217073 59 59 49
-0.7440915226381104 0.9711014530542864 5.1769849527061140 32 36 37
-0.7440915226381104 0.9711014530542864 5.1769849527061140 32 36 37
-0.7015067019512092 1.0215728726404936 5.1387089649983526 54 55 50
-0.7015067019512092 1.0215728726404936 5.1387089649983526 54 55 50
1.2911014825065152 0.9638178649456005 5.1863166190788608 124 131 124
1.7802377844569963 1.2218162890758018 6.2907913084736684 151 152 147
-0.7909989617905268 1.1068717789046250 4.1881571989523367 103 107 108
-0.0850075884610274 1.3267071969767723 4.9596088037871482 140 144 145
1.1469551462936267 -1.8003884436158175 6.1375171300739622 33 38 32
8.0474508486910192 -4.1255946026545987 15.6121320564793340 26 28 14
-4.9518597628894385 -1.7512302177860744 6.8851891869167927 115 125 124
-1.0210514966505737 -0.6605539916919544 2.7989285678761404 168 117 28
-1.5676263120803753 -1.6773190855090778 8.4177563237862323 142 150 153
-1.2702245397080665 -0.0723124864473169 3.1277287104972462 29 0 0
5.2852497771976994 -0.4070225207721928 9.4918642217661358 124 117 98
0.9400346681445244 0.6691234216324480 5.0132607769550379 69 73 72
1.3224136196682674 0.8388668352971315 5.2803303224967735 140 142 137
-0.1627228810198310 1.2705040891714818 5.0641383550847205 144 150 150
3.6143340976532867 1.5144965381277222 6.3904386774731652 97 64 55
3.3387597077301021 1.5897923286945972 6.1063961759793486 114 122 111
3.7511471612200924 1.6746981989007110 6.3470499972968337 92 99 83
-0.4108006268415329 1.4827821644618184 4.3400881642632596 69 72 63
0.1301622336880856 -3.6760471009533378 10.3414853935858471 152 157 160
0.2429399698496417 -3.4784506603400138 10.2110617281917975 27 34 27
-4.7857721608520567 -2.5517762085360589 7.4169682108693102 25 37 27
-2.9139070128243145 -2.4257886812846419 9.8903107574191278 179 184 187
1.0914770361595023 -0.1628425657045706 4.6519826732378302 240 245 251
1.3820557861860550 0.4339410725235784 4.3774878383112048 163 165 160
0.8295766371992414 0.6238608059856774 5.0014730885683489 13 11 0
4.2452318949469507 0.9200218562230799 7.5802487083806875 80 79 61
1.1338980528639309 0.7556848446359881 5.1175618635499598 18 20 15
4.0743192346743839 1.2347519686022668 6.9405950616521785 108 110 89
4.0161379176509850 1.3022543291262465 6.8564587243394062 106 104 92
-0.0507602509279746 1.3450047009917454 4.9940662732344929 43 44 39
1.2728990369549642 1.3347310046141494 5.1551472116568418 127 129 118
3.6972984127102233 1.6844253128549000 6.2940973085821614 30 35 13
-1.0361532100700934 -0.8325380784015241 2.7005135477432960 8 11 4
1.5469518277097174 -1.3991722167371003 5.7092104883905126 93 99 99
7.4388540657258346 -3.5713862939141454 15.1769193608822572 45 42 33
1.4441806244967419 -1.8591303227191449 9.9228943005369974 126 134 137
-1.0827205949247034 -0.4975091938527768 2.9245498828115997 131 83 35
1.0915804514851406 -0.1704310556651698 4.6435656805311227 219 229 231
5.3266945346270234 -0.4115097415118064 9.6587043867293083 113 101 89
0.3108630563088248 0.4864789752623570 5.2597382268535453 22 27 21
0.8802635033913512 0.6308613374714115 4.7742131195355730 26 28 17
0.9232444462930449 0.7970779050667761 4.9314977090036569 8 15 7
-0.7216119862023368 0.9970931182483751 5.1525544171217073 36 39 32
-0.7220740248803584 1.0375416205744081 5.1166022536453148 146 147 149
1.1970874150246062 0.9630741089543613 4.8644848554402902 160 161 156
4.0411352533902782 1.2727265806355486 6.8966685411182080 47 47 37
-1.1500936441209504 1.0973007561114978 4.2030797040186023 102 104 101
7.8266434798516604 -3.7135280389817282 14.4455342930147950 49 55 43
1.2158877633152099 -1.5473478633340951 6.2844970909134634 8 14 0
1.2284422775328598 -1.4597208529565300 6.1833322560304174 75 75 67
7.7153096610513039 -3.5079283632616338 15.2806627897668204 46 48 37
-1.2045270374548229 -0.5836044108612026 2.7712725362686839 156 98 16
-1.2785944287492625 -1.5467898718333586 8.4150902925542699 191 194 201
1.0242404344176081 -0.9977316078650270 6.3032774950288353 69 75 75
1.1921000145623377 -0.3278316269011711 4.8583248986153302 169 171 168
0.4337541318972612 0.1830484093141960 4.6249420143908919 94 96 93
1.1900025097275102 0.1995345741136239 4.2635205131741820 79 87 89
1.6221918055484230 0.2676083513181273 4.5421130936343754 63 61 49
1.6221918055484230 0.2676083513181273 4.5421130936343754 63 61 49
0.8917402163498837 0.2979860688294082 4.1067224278748444 87 88 83
-0.8036038713949256 0.5584279990850084 5.6520933400154547 27 33 29
1.2042800517069796 0.7449153990721170 4.8316485381438730 17 20 9
3.5746140675615430 1.5078735461687236 6.4062184111546134 25 23 10
-3.7859801115125000 -2.1143181026901847 6.7405733016923568 93 103 95
1.1411202154990039 -1.7918776644224055 5.9719293580440853 45 55 47
1.7615780388124487 -2.0994723473477910 9.7606262219342277 30 31 23
4.3368306756271435 -2.2936789816659280 11.2358893537919986 34 35 19
1.1545325850770511 -1.0013249923677823 6.2534302009894693 173 174 176
1.4848762875486516 -0.0620947044874059 4.6651344395187877 245 250 254
0.8897218020706243 0.0085291079916574 4.1732081478405592 8 10 5
1.2024912999957587 0.1508951431186686 4.3507562587696063 231 238 244
4.2824978562861169 0.5138892517694249 7.6471194602691890 91 77 40
0.8072855507042079 0.5220929100314484 4.2788092887817069 89 90 82
1.1468564480469436 -3.0663063218336153 9.7178716604785453 60 69 68
-4.5550608667352206 -2.1634770401605743 7.4606548488226574 130 136 132
1.1834841978870991 -0.2556441936806050 4.7794614004685609 67 72 76
0.4813305901142365 0.3263743049644533 4.9439975645790639 174 183 182
1.0208426689657404 0.2751105042227101 4.1419655189047289 61 69 72
-1.4513102194437091 0.6826096571542238 3.6387573094553165 144 146 141
8.1019766722550095 -3.1974387766285814 14.8809962152542958 77 69 46
-0.1896896276147754 0.2707174813223004 3.2185865517407897 172 137 117
0.3198880686041219 0.4037735994871745 5.1853769039869713 174 178 177
0.1973243573621649 0.6969598906062729 5.2260100310041349 26 31 25
-4.1188440373810566 -1.6350814369956883 7.1642094662555671 128 137 136
6.7662377244084260 -3.2103877988996792 14.2322185406253325 124 123 118
-0.9604998986066428 0.8376521249546737 5.1385299487343508 77 78 70
0.9264913030915681 -0.9834640076205887 6.6043205795806337 174 179 182
-1.9300768889152125 -0.2606072492164907 3.9253845708617954 194 200 200
-0.7614019115834645 -0.7632489662690572 4.7012614994243442 206 209 214
-1.0307199495499291 -0.1943951027445371 3.3583937087175624 132 15 6
-1.1582501573020345 -0.4850306234763828 2.9117169356878243 19 16 7
3.1189545690942637 -1.4805120555684486 9.1491594420860380 177 178 173
1.6958858341254321 -1.2944512579478138 7.4682063699131893 151 152 144
-0.9037269665100804 0.9757895377022316 4.6584853917493261 138 142 143
4.6047457799869731 -0.8984865777594262 9.6625337412107051 160 164 163
-0.8183176431444311 -0.5476252990238724 3.9890766796770025 193 91 87
-1.1892890077863887 -0.0671159111826941 3.1353419692063706 138 74 26
-1.1882690613946130 -0.0658541035560280 3.1277393273200973 138 74 26
0.8004748062170230 0.4529457497288824 5.2988869958582550 191 184 176
0.7438088158258706 0.4479764268723281 5.2900652649952198 142 124 122
0.7236192018913040 0.4984718899952088 5.1210692602188788 142 142 142
0.8437583425106022 0.5895800331249968 5.0662312242442207 120 121 116
0.7631688423881524 0.5776416414744338 4.3859825515433197 16 18 7
-1.2841494003212977 0.1541130008481794 2.8962170414287658 186 54 49
3.8722901914802366 1.8990036909857699 5.8979860355397005 152 146 124
4.0985488946102304 2.3550253101596885 5.4734674208436642 90 98 85
4.0985488946102304 2.3550253101596885 5.4734674208436642 90 98 85
-0.6964037160302232 1.0095209943509940 5.1825529050968067 134 135 137
-0.5434564139712220 1.1738088878854644 4.1690610031064894 105 110 114
-0.5186037714162629 1.4324332739953674 4.3216833004293811 132 135 126
1.6277678094879839 2.2891483181323347 4.2404673019988985 36 39 28
1.6411398775091821 2.2997144931097391 4.2676080889789283 37 47 38
1.6936820415557878 2.3280619481162304 4.2504304402053501 43 49 39
0.7441516468622056 2.0575785551106001 4.2147249881480056 44 44 34
4.5458028727839590 -0.9124520387304565 9.6401458705750240 119 117 118
5.3392345489867434 -0.2229601918276078 6.8587851603236993 61 45 9
5.3392345489867434 -0.2229601918276078 6.8587851603236993 61 45 9
4.4651875259702294 -0.5987364203595770 9.4214221841246815 176 168 165
5.0432494947567559 0.1345176341812781 6.9382842857185381 15 10 0
5.3418553866309741 0.4724726120053356 6.5677133507212115 163 123 53
-2.6810015029155903 -1.0445774114605091 6.0741744581087200 87 101 104
-1.5061467634455157 -0.2476057486562600 3.3013099033714868 86 28 17
-1.1503798818118836 -0.1538633044922275 3.1811125464385803 215 144 36
0.8336869447992827 0.4784735801182161 5.2904913886614526 180 183 176
0.7712641322382229 0.4716404816813740 5.2369516874606337 26 19 11
0.8947401796858236 0.5313029000046935 5.3488268583509626 85 91 87
0.7295855849821696 0.4986794635562671 5.2202779525869385 40 25 20
1.0700781923832099 0.6351790619710521 5.2263532950253957 25 28 21
0.8864582438119876 0.5959713761315213 5.0980256871495131 13 15 14
0.9222547130194714 0.6100275937552319 5.1985736662526660 6 11 4
1.3650346659507653 0.8040322306974025 5.3203464341417339 43 44 38
3.8450521114441756 1.6941075667639585 5.9520126093173689 109 105 94
1.1679927759868707 1.0816452816464666 4.8394433359928497 63 65 62
3.9277687186630263 2.1191434029916603 5.8081822441721069 73 62 44
3.8198278696316419 2.1367205433020593 5.7289949296183282 58 54 45
1.0056263565961392 1.2624861008592985 4.8112174377188248 43 45 42
1.0233640808555646 1.3515023812372424 4.7961332420689171 106 105 101
3.9757365336911272 2.3043832539880200 5.5434599181448307 149 161 149
-1.0709862833654984 0.9790111406462639 4.2081883778249658 52 51 49
-0.6467362449669194 1.4771011409868278 4.3959889492136188 174 179 183
-1.0048610492120298 -0.6565850631071246 2.8509930402972645 137 99 54
4.7943077123648843 -0.7884200880520241 9.6596939636636279 72 77 70
4.6445384107675576 -0.1879963539631882 7.2210157577318155 189 172 144
5.0835973307137730 -0.0181978088582756 6.9306630858580407 152 121 64
5.0835973307137730 -0.0181978088582756 6.9306630858580407 152 121 64
5.4124003846746414 -0.2025709982240696 9.4516606288854668 51 44 25
-2.7140212614715833 -1.1459043525572925 7.0850788537668778 127 146 161
-2.7199142521047857 -1.1483830617688051 7.1109502469279295 127 146 161
0.8596861722685079 -0.2775844560301515 6.6007595070752574 104 107 100
3.9058173663095337 0.8300659724301085 7.4962915978055715 59 60 55
1.5836809130430725 1.4491164613499121 5.6454174376806030 154 158 157
4.1792467347032680 2.2901171330277204 5.4808388720271468 150 158 145
4.0308633786923194 2.3089664040552145 5.4751236589032146 135 145 134
-0.5045850902778729 1.3469382406635642 4.2634708211865453 136 136 138
1.1789736577480159 1.9439345689556120 4.6672382054480837 152 160 162
5.3559455158214666 -0.6159220658618277 7.4625321482184432 179 151 114
1.5333395867891007 -1.6868377086230424 9.8974012311420072 96 89 79
5.2384345694367296 -0.4718471110041454 7.3396248454508157 60 43 15
5.0437486533826092 -0.4557482769058054 7.5075177062894989 21 11 0
5.6060457925220710 -0.2238777161825696 7.3078851611151885 78 67 37
5.4952039880388224 -0.5002526896916234 9.3886613681701316 195 185 175
-2.9638166526452903 -0.9870234188872010 6.1807331378525960 161 176 179
0.4414764839488151 0.1640279901497113 4.5747111350832066 97 99 96
0.8431636517583645 0.3981454028853484 4.2633179430024075 2 4 0
0.8016093874062740 0.4271076473716584 5.3757171801070101 44 48 47
0.8279431582445078 0.5171065868892557 4.3350476329025494 95 95 93
4.5485301408362631 1.6424335230227212 6.9454723392157449 27 29 16
0.6018204880324639 0.5889113285111194 5.0136978015639819 106 116 118
0.6078158481631027 0.5912635892226902 5.0315842582215691 117 122 118
4.2533408321641621 1.7129355371631743 6.5080843776964983 9 15 5
3.8225063748154344 1.6294040613725813 6.4028347447847516 117 117 107
0.2461206367881462 0.7139146171939195 4.9942197042980112 83 84 79
0.2461206367881462 0.7139146171939195 4.9942197042980112 83 84 79
3.9730085332260137 1.8431674395280071 5.9720589374433004 115 88 45
2.8561142359543816 1.6990408335881710 5.8757363264756588 182 183 177
-5.5799852960379335 4.3438721582109494 23.9846610094436308 182 49 50
-0.3595163649181872 1.2570900417395174 4.1480193047133067 92 97 93
4.6744391178565072 -0.9483840261234499 9.7773148290824388 106 111 104
5.0966215462448430 -0.3744766515211765 7.5669750233856501 152 117 59
-1.0352095151529153 -0.5747092449532062 2.8218859494954578 125 70 14
4.1175815087038217 0.0324615233576380 5.5413030228232172 20 21 13
-1.0886806663987434 -0.4548102388499285 3.7410517571052586 193 154 125
4.2172332271590092 0.3049986387955243 7.8606515104065080 34 37 18
1.3549700156401305 0.0456226510262632 4.5809863853170745 231 238 246
4.3880648132894517 0.4764260191720194 7.8988357508330491 22 23 9
0.2821845240966179 0.4723231305702104 5.4283586876037031 72 76 77
-0.7208675450149886 1.0604687110849209 5.1013263144971601 155 159 160
3.3491606937135909 2.4301196535692289 5.0530283970832652 11 13 2
-0.3660859687319538 1.2062671865068246 4.1814904324993520 144 153 160
-1.9931838565407904 0.8336565391529178 4.4410866858814337 106 110 109
0.6801929083575614 -0.0793733894010089 4.4703513658654073 3 8 2
1.3742776129950907 0.7898086322499740 5.3387503975471029 157 157 155
3.0266831401805825 2.4540718302425892 4.5770043181351312 133 145 135
1.0332205829061720 -1.1044443476614938 6.3432779380339586 164 167 172
-1.0904322680313809 -0.5336231195035266 2.9276996952429335 29 22 12
0.6805517940302420 -0.4010190889818429 4.8005333574943174 200 204 207
4.7181800281715542 0.2450722622223709 8.1780712703833274 37 35 23
4.5803402868194745 0.8006616479941144 6.0884889308466699 124 91 38
-2.7323804734250250 -0.7012313992119040 6.6597497276565045 182 190 193
-0.0247998522311845 1.4081123854011430 4.9480340950159842 151 155 158
-1.2750848055897213 -0.5858900419008766 2.8788576564198443 191 196 200
4.3534234860197909 0.4353554607865255 6.0107604422068297 155 120 54
0.5106169313354039 -0.0147817488183122 4.6938274848136752 8 11 4
0.5494898316895975 0.2952990520439055 4.6619526136569309 153 159 159
0.9054855024804579 -0.9483975887146815 6.3229123135274685 169 174 177
-3.3033588285368900 -1.0433050464765523 6.5916730436137652 139 151 149
-3.3033588285368900 -1.0433050464765523 6.5916730436137652 139 151 149
4.2652551719035934 0.9545656553516374 7.3615056348444474 72 39 8
4.2913223397519724 0.9589120572939378 7.3983128619461063 59 35 1
5.3652636226778343 -0.3473066057816711 7.5413551054244774 71 47 9
4.2436094638700963 1.6570947294446261 6.3088952034976140 5 6 0
-2.8658233739383010 -1.4462572047195366 6.7584853090117196 176 181 187
1.3033688182773977 0.4481356173569276 4.6507678499181386 5 4 0
0.5167918266177889 -1.5455120349460236 9.2502375146426221 145 146 141
0.8738531090039229 0.6857470783440555 5.0970358836193288 3 8 1
3.7871908601195048 1.6658342141028233 6.3450255929450146 59 62 53
3.7871908601195048 1.6658342141028233 6.3450255929450146 52 53 45
3.9305267146309486 1.7456331577806390 6.2596303053162305 69 71 58
-1.3425717839788347 0.1906117994893245 2.8047128991177965 197 61 49
1.0555769325922375 1.2172876500459926 4.7638182096074555 21 26 20
1.0563320890608192 1.2198163971459739 4.7664743528488414 41 46 40
0.4858706298820699 1.8435731080022226 4.4196535328796065 38 45 37
0.5414395933635392 1.8724974566852817 4.3988492005852162 42 44 39
0.8218316278753025 2.1162865952019287 4.2595699449398188 49 49 41
-1.1054247035461182 -0.7871065858779851 2.6454557073931122 43 52 51
5.2942933134939540 -0.1662357792108859 7.1595633254932149 173 174 168
-2.9408283794133241 -0.8540534421551351 6.1459253330836061 92 94 91
4.0464622871618916 1.6770775616223506 6.4454628477586180 151 148 133
1.6274477611122904 1.4488418838565429 5.5720102909375981 62 68 66
-2.7967439550754980 -0.9178575445880848 6.1060589332304103 23 28 24
-1.9132790343646890 0.8916006429530003 4.5077210197675015 79 85 83
5.5797470149722042 -0.5746924727376427 9.4704292224885265 142 130 114
4.2576841866399722 0.1452070781625598 7.5930599759992363 171 161 152
1.0235401335601695 -1.0002889293965405 6.3061162976712879 69 75 75
1.1613829358083412 0.8095583921833296 4.8844650972402270 15 27 15
-0.2353693056456143 1.4979417050841655 5.0485065031074630 131 136 142
1.5347542401526493 2.2083442195354834 4.3763220977665744 24 26 21
0.7954895834103296 -0.0913725602256164 4.2943050363988160 5 10 4
-1.2859911876818872 -0.3591181418835407 3.0309953476641383 26 31 25
0.7289288089534558 0.3358804638673428 5.2880187340097242 166 172 170
5.6261299354159835 -0.5183250251281353 7.5550784109317775 148 121 78
0.5799874069415151 -0.2112286380901807 4.9599715085381240 170 175 178
-1.3660397405542672 1.6386507813522841 3.8708262846788317 80 89 86
1.5093841901993992 -1.8002883427358005 9.7828174119493063 139 147 136
5.7034644132865582 -0.9163853947263616 8.1546420690494248 189 183 171
0.4539360856108355 -1.5050994578419512 8.9468122507538688 145 146 141
5.2554053592501173 -0.5877209060970517 7.4038466719217215 90 68 31
-1.1649520773021826 -0.5707228836460598 2.7460019530653215 114 58 0
-1.1648659692673331 -0.5709348520255888 2.7421690569153143 133 78 0
1.1186605170607371 0.0534881043285230 4.2390069817846934 14 16 15
4.1512331843754051 1.3552933947372261 6.9691689304472000 72 72 62
0.7011235145728789 0.5071587021194850 5.0306294482089653 8 13 7
4.1450158886228907 1.5605837104130031 6.6571801793322276 24 31 13
4.1450158886228907 1.5605837104130031 6.6571801793322276 24 31 13
1.3350817296909321 0.8297446533969620 5.3224236342339069 123 130 123
4.0148585246340049 1.7585954271149520 6.1970457189736372 109 105 94
1.1937080318191058 1.1235694805398362 4.8645965157480573 75 75 73
3.8990605660481150 1.9730868382193099 5.8187359051123604 69 52 22
3.8463915709955399 2.2030769033013957 5.5045391911834711 130 142 128
0.5828613158808410 1.9364699993143568 4.3347357046616724 49 51 48
0.7470539564360930 2.0159061831369351 4.2822926977512061 38 39 33
0.8021956925701084 2.0860446610633381 4.2051900362122518 42 49 41
4.7471320057076838 1.5250847241617220 7.0374624417679312 97 93 82
3.9976528871887140 1.6877232355419791 6.3011910405052864 136 138 124
3.8505337551705434 1.7801285179195669 6.3841828854025149 137 139 128
3.7376319215048852 1.9272151945182638 5.8989506556711921 106 107 99
-1.2125662111759934 1.1432136321024584 3.9382740868355746 116 121 124
4.8335649627430692 0.0590880998708497 6.9488080371701004 128 95 41
1.3585363629116349 1.2816751922052512 5.1141306477801312 149 157 159
-1.2865893588816248 1.3540469065987364 3.6375010560916503 82 75 67
5.7298681927259274 -0.8749213166349513 8.2035682498130402 129 109 72
-2.7558723828752356 -0.9842192690216995 6.2342951079273341 93 95 92
-0.9455508952321311 -0.3870299849078793 3.6256368178114466 52 57 61
4.3558323547644617 1.2925699155789638 7.0937294041807766 136 127 120
0.2321121927252013 0.7333038750233247 5.1014537421987578 7 6 1
1.0390167643193902 1.3204990129491840 4.9310139738900585 58 61 52
1.1583554382222838 1.5182398256522627 5.1806473722677975 23 28 22
-3.2095578843281771 -1.3574999800697312 6.4222511113322254 157 171 172
-1.1485227740188382 -0.1254233326219299 3.1696117342966339 248 190 93
0.0668275582912714 0.2586246978039518 3.3749646064816434 228 160 171
-1.0725009732053252 -0.7926933269638963 2.6697936424958941 6 16 7
4.1508115574327711 0.3735817265162999 5.7796940262635017 182 147 81
4.1508115574327711 0.3735817265162999 5.7796940262635017 182 147 81
-1.0993635041647096 -0.7991578790146493 2.6497031306498915 7 17 9
1.0917531183532807 -0.1097796056031093 4.5549347824057920 42 48 46
0.7769510985141937 0.0332586473887678 7.0734308452144337 228 231 222
4.9567046491720301 0.3281376526016255 8.6916793228112823 73 68 62
0.7658901587009073 0.0896944995175638 7.0326348835378525 100 96 87
0.8481185337482693 0.6402800455811307 5.1306086596407265 12 20 9
0.0900775382076920 0.7913124023153645 5.4882097048508660 168 169 174
4.0404207687898115 1.2756647877513176 6.8158722138369594 113 114 100
4.2464133460839841 1.3381736393437862 6.9066836396403497 99 98 80
4.0112245831445152 1.6088064387157657 6.5305493205486558 16 25 6
3.5411407125157295 1.5776894168710489 6.1862875242595061 43 46 35
3.5411407125157295 1.5776894168710489 6.1862875242595061 43 46 35
1.3428325965396759 1.3667031717191775 5.2523182151048449 145 144 140
-1.1670097354872251 0.9928941621372479 4.1929946463152250 98 100 99
0.7092345560804659 1.8159238004782194 4.5884392955436297 68 78 70
0.7036384210291590 2.0052817273665959 4.3396263794782453 50 51 43
0.7071049905827156 2.0119247522873804 4.3528191917566721 35 40 33
0.9471533875734209 2.0801327448759266 4.3398957712221407 51 54 47
0.8832304572300087 2.1033278500597894 4.3311038525264287 46 51 45
0.8727681469257311 2.0868850171517122 4.2908753264296955 46 51 45
-0.9086578281833515 -0.5292452125738145 3.9156168437075856 209 136 145
-0.9364810740856906 -0.5146047086737420 3.9189732618578668 194 117 123
-1.2917823484099706 -0.3732384209703387 3.0011790364893094 56 40 24
0.5422276599888070 -0.0392619282851566 6.8497214802625610 91 100 99
0.8997688492463842 0.0410016636106924 7.0922354996101822 131 132 127
1.1474281761818264 0.1400140471239376 4.3415812166301659 72 80 83
4.3610108425552356 1.1150441134949427 7.2675198562393888 96 75 32
1.2422731480334710 0.7287210053657621 5.1702742354407247 179 178 173
-2.9120237816051500 0.6381624789395592 4.5487936026124309 177 187 189
-2.9540739483661240 0.6573386643741534 4.5273651315761141 172 182 184
3.7036216246006801 1.7036804509616403 6.3612367559014107 85 89 72
1.5014733319508711 2.2141324046405240 4.4570501871859669 103 100 91
1.6437359363915467 -2.0206109303141764 10.3472597321348498 63 60 53
1.0325191877061477 -1.0550397552574451 6.3225171101924440 160 164 165
-1.3072707790562434 -1.0663254313009938 7.6160163202507718 84 87 92
4.6773645735817153 -0.8368214819165706 9.6140793413672654 168 168 158
0.7144098465668874 0.0871507478958461 7.1845350009044502 68 70 67
4.0760928228771363 0.8539767891281851 7.6546796294592436 112 115 106
0.2784364621449675 0.6306036516592557 4.9367328389334419 91 93 88
0.8465528383975507 0.7583842976079218 4.6765240310666973 24 26 21
3.9942641119496760 1.4486631864476129 6.7549739512655389 126 122 113
3.9495761656675539 1.5572904619867314 6.4574025329327362 111 108 91
-1.4618225280465620 1.6051894814598524 3.7290401626806249 99 108 113
1.5252608014269160 2.2323373647012561 4.4361693345652631 101 101 99
1.6421176465588931 -1.3560492747264914 5.6393682232309628 76 87 73
2.6706966394711800 -1.6128283940357278 6.9632140022689937 137 130 111
2.6478135896141199 -1.5831271380769605 7.0151428670641964 5 6 0
-1.2227702417967319 -0.7105913262401184 2.7508687784216246 181 186 190
-1.1396514692751203 -0.3538799123263817 3.0303988746021919 18 9 0
1.4817024854340717 -0.0081886995017297 4.6629319905838331 69 69 71
0.6828159546651824 0.0375178852899478 6.5706301320867846 171 139 124
0.6321205319643266 0.3587211023726227 5.3978461401694098 118 121 114
0.6497536347107642 0.5021911928457291 5.1887396093303533 17 6 0
1.0997034138625097 0.7054844034694556 5.1422710419169224 172 172 172
1.1093838879421154 0.7445924327421524 5.0430303931882987 8 14 10
0.7452143709065912 0.6553057768087795 4.5020374997351897 35 37 32
4.1420779086523547 1.4099544257787273 6.9083175428657215 11 13 2
1.3443650987262536 2.1118902337063648 4.4414499097535245 34 36 33
-3.1204252418113030 -0.9699614462550272 6.4846023240881561 34 44 43
-1.1686662766161260 -0.2010718417062698 3.0903734342439608 62 63 58
4.1541339388526177 0.1149584966501772 7.1025158341622712 51 42 25
4.4967888910583653 0.3670471062902981 7.9266393550131644 18 19 5
0.8655160201805171 0.5184660950694171 5.2123938013850619 85 91 87
0.6938995407586944 0.5429419419566012 5.0563642346302737 11 10 5
4.0348069569313134 1.6555471030915820 6.6161733316536893 2 9 1
0.3718656019388938 -0.5267514065461161 2.2477664349657300 104 109 105
-2.8752322385057560 -0.9807794913544944 6.1928634628149295 37 48 42
2.2514649671732849 -1.2149868911991233 7.0023412087553689 153 159 157
0.9253695043323692 -0.1695791112203973 6.9141723506637094 65 69 68
-0.6944706153145506 0.5053482737334137 2.7922477522398488 65 16 11
-2.9963966763974574 -1.1377325849106470 6.5494734422345511 171 180 185
-2.0218695403237836 0.7725469948173432 4.4081697621796776 184 185 189
8.4874284514752762 -2.4353000158922944 13.8355013524109385 82 88 76
-0.9998795768399036 -0.3581024482183346 3.6296198661667591 235 242 250
-2.7707828438010829 -0.8384681625222988 6.0822362265306564 45 54 51
0.2622153619940250 -0.7162348521931386 5.3854413287881515 199 203 204
0.2622153619940250 -0.7162348521931386 5.3854413287881515 199 203 204
-3.1340115571005027 -1.7390126683076921 6.7849410869025215 170 176 174
3.9905058490364049 1.2950779693368426 6.8152222808889498 106 104 92
-2.9091841069727433 0.6411177052522913 4.5427998672690117 177 187 189
3.9822301494549790 1.7459787231180750 6.3955955799271047 69 71 60
3.9687033402983620 1.7588942571039736 6.3177074194890821 70 77 61
3.8717345049794982 1.7058372999652496 6.0572480434838711 111 108 93
3.8128684290681849 1.7068339871440634 5.9555254596599809 24 21 4
0.8625437772184383 1.8935382692582841 4.5611955122369210 52 57 50
1.2654684563237790 2.2180355049770282 4.1932263624422061 36 38 27
-1.3940543725181020 -0.3421708469067726 3.2313013054906903 224 145 53
0.6669995541935929 0.0141511453618855 7.0171317183009982 242 251 250
1.4743650409202478 0.3496167583386822 4.2860592067300392 208 218 220
-1.2877693209481267 0.1530544024777364 2.8998976726760848 186 54 49
0.9255880477129674 0.5677701687878337 5.2719213851540170 156 157 151
0.8053910379848593 0.5219311663482080 4.8391827108423993 112 113 107
1.7462333971732595 2.3774591345715956 4.3490787721388404 42 52 41
1.7462333971732595 2.3774591345715956 4.3490787721388404 42 52 41
4.4742154848474645 -0.9000065598906642 9.5141977449081399 119 117 118
1.0456554038402035 0.2022194547760606 4.2189189732940209 30 39 36
1.2244941981309994 0.7149003674863982 4.9266072145947035 155 161 159
4.0417914832566852 1.4628042037149263 6.8222268030473314 126 122 113
3.9275519094404312 1.7837338135533976 6.3622573204234154 115 115 105
1.3169637667998970 -0.0646272925633268 4.6478308723149810 72 76 79
0.4165443549395606 0.2679251190801883 4.6836520217334909 105 104 99
0.4060498350941478 0.3382234224942354 4.6218880456123133 42 39 32
1.1038600312043030 0.7089519187887665 5.1592152634827171 172 172 172
3.9022889702009445 1.7950164664602508 6.2674081635894145 38 42 27
3.7807059240534797 1.7308379424996203 5.9106224248311996 122 116 102
1.4259113792485365 0.0258866554959046 4.5667232885705582 242 249 255
1.4218171085878961 0.1223797338495600 4.4973634380833412 233 237 246
0.4697956041299328 0.2283166043940841 4.5125427208941904 88 93 97
2.1407818242701495 -1.3180999523568777 7.1371789047623633 156 162 162
0.4962577095645935 0.2395687799345791 4.3498753934360632 3 6 0
-0.7073774843515456 1.1046739578411440 5.0596130581770371 140 142 141
1.3343916266525204 1.2571000132871433 5.0299050952173321 167 167 165
1.1563573988931624 -0.8617041852086852 6.2940456709858532 185 186 188
0.0917642140336307 0.7478069908383963 5.5005056491764606 172 175 182
-0.8977250219964439 -0.8662301738456157 5.2519339498157418 191 198 204
-0.9956671312032253 -0.4872846672990352 2.8339433511493901 187 196 201
-0.1346137624788972 0.2444750513371970 3.2385220712312601 247 244 239
1.5392157703259659 0.3282175797210047 4.3401846498113006 62 61 56
1.3741309199924974 0.7762671955916445 5.4630447366831012 76 80 79
0.6008389014860950 1.5463788007078838 4.9212504160333479 75 80 76
0.5882989412286306 1.9451746982106439 4.3555024423575750 49 51 48
0.5640864811043873 -3.0518395412767170 10.4367942497473027 0 5 0
1.0802904410726819 -1.6514887373505631 5.7405544789848726 78 83 76
1.3461763978522781 -1.4408690581501216 5.4759331936246207 40 45 39
0.9425812001884643 0.8185503223682818 4.8318578555183089 19 24 20
1.5923277936622982 -1.4907097394305968 5.8799528126785043 41 46 42
1.6922202803052486 -2.2899191322342478 9.3529762986223766 95 96 88
1.6672184391502782 -2.2593876787468519 9.2187971521809597 95 96 88
1.6296588365526024 -2.2802464803616673 9.3489450909989031 20 23 14
1.5200263793607318 0.1733518546723240 4.4579488089721426 207 210 215
-3.7336099555630891 0.7166203006578957 4.1658649217968460 145 147 146
-4.9691228354214250 -2.2332048563252549 7.3522249595785265 68 65 56
-1.1521595930004203 -0.7988946267363356 2.6552306267440202 188 195 188
1.3005049841844427 0.0849367126451193 4.4324256775045114 27 28 12
1.3040918476550205 0.0839399512172083 4.4460507599632564 48 56 43
1.3389727811094059 0.2538648654721499 4.2267282346276440 59 61 58
1.7792213105898727 0.4676229006498312 4.7136249059777642 201 201 199
0.0143691843662759 -3.1984124804113416 10.6942611557765357 168 172 173
-2.8004556338600675 -0.9380719270880233 6.3353833200288046 30 38 27
1.3863795639878449 0.1122604331381563 4.4506456369406369 237 244 250
0.4146081066851470 0.3705273974407046 4.7421924806962830 30 30 22
1.2973272466612922 0.5950150683844112 4.6265084647765917 131 140 135
-0.9940539668769421 -0.7710102110548124 2.7767078012871926 194 203 202
-1.3406476801038187 1.5023468740054637 3.8565698599643539 139 142 149
1.2404781391157591 -2.6167972838580225 11.2540307883929493 71 72 76
-1.0820552212924657 0.8346743326781783 4.1104957850023434 56 58 53
-1.0820552212924657 0.8346743326781783 4.1104957850023434 56 58 53
-1.2800158180388503 -0.3528248198359799 3.2844431942918835 202 134 25
1.1586000364456224 -0.0651612769588100 4.5812481652662314 250 255 255
1.0928073076531111 0.7337493475679018 5.0904845333726172 157 163 159
-0.7890402875950564 -0.5400162106718496 4.0032879286340801 178 96 98
0.7394791516565253 0.4488391846102667 5.2860505465709853 176 150 149
0.2540638474164045 0.5163326104032909 5.5917936370887071 30 40 41
-0.7481516339346070 0.5779428007507188 5.7584726964394646 127 129 126
1.2690139927762456 1.1553497694086881 5.2557759467946683 137 144 137
1.3674827302989583 -1.5897121404811940 6.1185958438672507 81 81 73
1.2001689877966895 0.0415605289048363 4.5267071237007590 53 62 61
-0.9104129252215157 0.7458372511837182 5.1549956083614470 77 71 59
0.5605553503977246 -2.7618166386987473 10.7953454011292251 98 100 97
-4.0009347139022085 -2.2163887827088051 7.8533785507975207 31 40 35
2.4264112231980475 -1.3714674749735307 7.0171594320552710 102 101 97
1.3598838128864437 0.1564507782761282 4.3685463860791760 66 76 77
0.2769907765615786 0.6008462726754666 5.5322221343283324 25 32 25
1.5013289703770287 -1.7221312637034960 6.2886958299420490 99 106 112
0.8361407291122289 0.7144734723951738 4.6636088362349017 21 27 17
-1.0712745714900898 -0.6444598843634091 2.6908040788346188 119 75 14
1.5057785147879645 -2.4324172368717956 9.3731732368204028 61 70 67
1.5137894277668289 -2.4425886155349952 9.4257626054842909 61 70 67
2.3418340922701120 -1.4969331538034107 7.1823628642211430 94 95 87
-0.3292115566658950 0.3755836698247525 2.6990632544202735 62 13 8
-1.9012432034868048 0.7882714264340144 4.3272047359923276 75 81 79
-4.3209292283044469 -1.7166964042543820 7.5294660291913020 141 149 151
-3.0901786864675449 -1.2899161327947646 6.4209366240179957 44 54 43
-2.6532866111329634 -0.8159370697640049 5.6477028436352565 41 47 45
-1.1328607859166429 0.7876738674645062 4.2988081452914804 73 79 77
2.3165643142880219 -1.6157769017427690 6.5742503207790604 106 106 82
1.3097694993191920 0.0016067646704212 4.6405733602123922 165 175 176
-1.1972148688245710 -0.1294264026746497 3.0913945609082112 38 8 0
0.0896653195705618 0.2230142417687435 5.9643014308583302 174 183 188
-1.1487077258191880 -0.9152211831429121 2.7642016385330437 187 194 186
-1.0722439084543276 -0.8661914042151525 2.7754730819299143 15 20 26
1.1043780326994910 -0.8521176304206867 6.4262392552333374 83 84 68
0.1738058353958261 -3.6005326397933355 10.3910631254604482 138 143 137
0.2768621275731547 -3.5278431836597282 10.2179853683598711 138 146 133
1.4359298176894371 -1.4909913366801644 5.6136401235901001 97 99 96
1.0892890090380296 0.0396597078389697 4.2651091428878658 97 105 107
1.0073080098766187 -0.8723059159373239 6.4587296821435691 144 153 160
-0.3174621658585545 0.3117836385649175 3.2436768758942214 160 156 153
1.5128513621596802 -1.3553120374569951 5.4053595595123962 36 39 30
3.3651047340052789 -2.6884245233654394 11.7444542127280531 26 22 19
-0.0278125224558030 -3.2840561108117550 10.6835899846224613 147 156 153
-3.3929381864771146 -1.3482056532451498 6.7014330038327241 175 187 185
-4.5820026334062325 -3.1347275354910669 8.8868807183185474 106 111 107
-2.6592591497945155 -2.0013501563716813 8.4394013588460908 222 227 233
-1.4673058177860634 -0.0164071578784663 3.0534927922077335 112 10 5
-1.6434809661477909 1.1141874324375929 4.4336281380736597 156 157 161
-1.0417108153998724 -0.6571839566986600 2.9152686003273462 32 26 14
