ply
format ascii 1.0
element vertex 706
property double x
property double y
property double z
property uchar red
property uchar green
property uchar blue
end_header
2.9846039161335853 1.6179703723360099 3.6694254054646014 70 73 66
1.7399680545859695 1.1418670406054339 2.2272533939380477 18 10 0
2.3421775324045586 1.5514223817061459 2.5486088311532926 138 108 46
-0.6546952124244725 -0.2483883019470132 3.0621303956068306 40 46 46
2.3278501078325888 1.6224286801432977 2.4267421880184599 113 107 91
-0.1130691790388053 -0.4115266584840065 4.5435407709057589 43 58 51
-0.1016144882179828 -0.3142772816775306 4.3856780826737074 147 162 159
0.4718940257817411 0.5419092715540039 2.5603989152243241 218 227 236
-0.5033441605037183 -0.2454782497120788 2.8740671252526115 162 108 34
1.2839251550850639 1.9355132383211029 2.4342936592944229 102 103 95
-0.3560778996398382 0.2466855539601802 3.8674305421401796 153 181 185
1.1711452732187271 2.1125623493080972 2.1273582954583978 88 99 83
2.7658830124940499 1.8086195117677206 2.2497545518310078 69 50 8
2.3870801445760907 1.7613275429982618 2.2846485750816603 139 105 57
2.1755627397459794 1.8201973756807086 3.0533069702440581 85 82 67
-0.1800773747306288 -0.3072147062670193 4.5608898001068967 34 43 40
0.6121610726168323 0.8633383662624473 2.9736258434162397 157 159 158
1.6832715451767573 1.9755310580287788 2.5997362082359508 101 104 97
0.3704992298466864 0.7793357506717583 2.9432865423939689 102 103 97
0.4863112699211551 1.2194571173408693 2.8718577561755483 47 52 45
0.0311342483784899 0.9545998340480178 3.1143424752292961 100 104 105
3.2071558605376946 1.8086810509870737 3.2575111021143015 166 157 152
2.6577323577781842 1.5911164245718545 2.6349221316138776 13 11 0
2.8292607200533992 1.6194629569150525 3.1017827722560840 36 30 18
1.1478438794580075 0.4386588637317116 3.4458490586273642 141 150 157
2.3720416396337920 1.4334385364312558 2.7385013809021528 31 20 0
2.4316813919100051 1.5457476564236157 2.6014475746974162 26 24 11
-0.1029825553743920 -0.3194631552334929 4.3139239506219713 92 104 100
-0.1640625128592102 -0.3416155755162952 4.3588451615459878 180 191 193
-0.4762326352041975 -0.3111184605410248 2.7748144471636476 180 106 33
-0.1111221203496936 -0.2852239259844030 4.3764179652652535 89 88 84
0.6090578813152108 0.8560799393889340 2.9427130999307760 6 8 5
-0.3448025335680140 0.1587598719133483 2.5617093921402363 203 112 119
0.5915991973867424 1.2890602028479581 2.9122836393841647 145 152 158
-0.6432278972617491 0.2109022047959371 3.3406391891773493 72 84 84
3.1329710004186655 1.9217967000174843 3.4814052956955535 25 27 16
-0.3975052994961992 -0.3382435170603288 2.6583540284513507 136 88 24
-0.7985661073292962 -0.4325638166572666 1.8964761127450660 165 172 178
-0.1452725361501197 -0.2956963741712401 4.3656841948042340 95 100 96
-0.1998788151403590 -0.2396750282987978 4.5660032797165391 130 146 146
-0.2198773451537989 -0.1471579683966878 4.4128515733908475 154 165 169
0.4585926939925123 0.9032249204398439 2.8430851081897077 13 15 4
-0.4771055840310379 0.4507688428877534 3.1334958246037532 37 42 38
0.5196893867838949 0.3483539411739084 2.9236530172947424 180 184 187
-0.1214013019506506 -0.3768634096797308 4.4221439361951562 147 162 157
0.5478213937785555 0.6785261972781027 2.5574747029803819 37 39 34
-0.2123916543322513 -0.1728346652183040 4.4044092228417027 31 37 33
0.4382675992765615 0.9849708646350911 2.7741793750085861 160 164 167
2.2648876874820694 1.4238334333444398 2.9358629883469733 141 112 80
-0.4469453535385690 -0.3621517985269299 2.6581093262771156 154 96 12
-0.0973721907385910 -0.3645453256108107 4.3696169720725173 94 106 106
0.5635996494356690 0.8839850452456720 2.8190306337978139 165 167 166
0.3314703594229438 0.8047682239567866 2.8396321494213197 11 14 5
2.5136676002046849 1.5618212274022503 2.5745290507809546 216 226 227
2.1655531940822654 1.4644935605807330 2.7411065930611596 179 148 84
1.6926655654871354 1.4327271909102308 2.2816068765094495 3 5 0
-0.4972984766693171 -0.2335410866741871 2.9086527743848056 214 146 9
1.1715755808440644 0.6999575821319558 3.5016474749315747 164 167 172
0.3601339708331798 0.4285238476864410 2.5365491406316791 7 12 5
-0.4873851349055271 -0.3021637835202486 2.7542917563769906 166 109 20
-0.4752170728899637 0.4705380038406147 3.1339150179513329 73 73 71
1.2020107405901530 0.6381506927779319 3.5663947622500936 121 126 129
2.2372974877532088 1.7486887915318081 2.2214662326648162 25 6 0
-0.3862509256360310 -0.3420977097937234 2.8485931896781067 186 191 195
-0.2852533444966194 -0.1581996383827829 4.4136088472672563 166 177 181
-0.3857307645886748 0.5049511687511389 3.1575596720441568 160 164 167
2.3405102320367988 1.8005985342538167 3.1095287337621915 11 19 6
2.2856137084498873 1.5276337842071384 2.6918339609863788 177 146 79
0.0094696744348742 -0.4162380710916933 4.3706404095041860 161 175 176
2.1782084321229762 1.5028145251324101 2.5276827427747324 165 130 74
-0.1415224674746837 -0.2386655396520999 4.4376721633256713 19 32 25
2.0080863720778708 1.6078125504867267 2.8622833676967367 97 78 48
-0.1610919632468422 1.0069015136647754 2.9437425152928376 163 168 171
0.1267750977629810 1.6047786721896884 2.4774358067576183 4 9 2
1.8121595449891086 1.8273567907276815 2.5218820261810171 62 43 11
2.3458945143720733 -0.1687367982406820 5.0805566070885622 119 124 118
-0.3759359914597931 -0.5066699462408204 2.6678746670912239 140 142 137
-0.4012510594830004 -0.5013689247685092 2.6043516929613171 144 147 136
-0.4098258781912111 -0.4695411270204131 2.5876101234269706 19 25 21
-0.1195609046919049 -0.8230907481859816 4.9069514315961671 150 160 162
2.4002954817951232 0.0853165249194073 5.0904015286398261 101 106 102
-0.0272947614524727 -0.7099466624672421 4.7968069355095739 32 37 31
4.7245517105977104 1.3695380114208677 9.3491474055219577 118 118 106
-0.5579649549966975 -0.2667058355528387 3.0082414571542633 32 38 36
3.0599864928889629 1.5934105068727356 3.5862822986093841 115 117 112
-0.4637796265832841 -0.1294861199019699 2.7868442084725165 222 158 50
2.9239705033465686 1.8061712621942174 3.4945643742200891 41 45 31
2.9147696209403269 1.7990943987476875 3.4934715800328573 41 45 31
-0.4433639890215310 0.0673203199893374 2.5498216057607150 175 144 116
0.7310496428258568 0.7071417435910228 2.6115508065182746 168 170 167
0.7762040777161994 0.7470378275204674 2.6242986325817501 78 78 70
0.8507730589151392 0.8546499821306526 2.7377191500119702 70 69 67
-0.3352669925055560 0.1347418112716456 2.5479074333872624 180 150 124
0.4046481617536719 0.7251142913649523 2.9908630054768404 66 67 61
0.5395856937839598 0.8647299409347829 2.8999989568093869 69 71 57
0.5912786565424758 0.9132884578536399 2.8947833760148374 114 121 113
0.3534896348519609 0.7784001369647436 2.9385257926993562 89 71 71
0.5748402754482985 0.9119253185322929 2.8536387860416021 11 13 2
0.5368432876190256 0.8830365142721829 2.8184991073498402 150 155 151
0.2842001074215516 0.7556079573840412 2.9634511705910107 28 30 8
-0.8732349926101592 0.1868111689131172 3.6427508422333030 89 100 96
0.2779878571823051 0.7778303901303047 2.9214044025900217 64 59 40
0.5983410839188062 0.9943234050513176 2.8711410398248596 51 56 52
-0.1343863742896640 0.6736577186061057 3.3965444901696906 33 37 38
-0.1400289379606794 0.6959696534086514 3.3713453752158795 29 35 35
0.5195893565443065 1.0068570229522176 2.8312541761600172 124 131 124
0.8176002834976379 1.3072005643946132 3.0422941470421412 151 152 147
0.4677363220514459 1.0441324568791317 2.8308045667917114 118 119 113
-0.4071537634863580 0.5666524703819968 3.0582395422945110 96 100 103
0.3994657562023721 1.1034688211099954 2.7990640114614092 103 105 100
0.6540323628966664 1.3385182201583437 2.9096320851730231 150 152 149
-0.0448394060209621 0.8998933940079310 3.1361063268989833 129 129 127
0.4625671975272210 1.2096236190039817 2.8585053840542711 119 121 118
0.2929771833229473 1.2133655943446029 2.8951239900276593 93 102 99
1.3253953051452982 0.0449805679499536 3.3042169490400748 33 38 32
-0.3859743987196962 -0.3793854795135110 2.6364570452868259 173 119 19
-0.5779687954447553 -0.4891624706329295 4.7247710616373810 136 144 146
-0.4278778657108578 -0.2195822953866996 2.7972450193937779 162 97 57
3.0056064473037316 1.5419049552277673 3.7247313134344826 156 158 155
0.6779896491587433 0.4638513237920129 2.8048891549681896 214 225 229
-0.5278483279514589 -0.1392585552811739 2.8096537507809574 37 7 0
3.1707297784190067 1.8102844023079272 3.3854979216712104 96 88 69
3.1232350799865523 1.8161350406760335 3.3991059688827834 124 117 98
2.4791224366755023 2.3445212295639584 6.4202770340158493 166 170 171
0.5738520112629192 0.7081633975251902 2.6199223087915615 45 47 36
0.4665223581651378 0.7537582162661867 3.0485806777796136 252 241 249
0.5897978543586072 0.7977365564583138 2.4904135760353410 154 150 149
0.5043203394142288 0.8353179767386202 2.9187422836451948 255 255 235
0.6001693174681522 0.9956235836140965 2.8868422780116578 140 142 137
-0.5375257496676561 0.3863779086197362 3.2669114065403235 123 131 133
-0.5100325026936495 0.4666086320818656 3.1199397861619027 103 102 98
-0.0375896125430888 0.8750268147383276 3.1901872233653177 122 126 129
1.4366169370488695 1.8161031471225848 2.6544540875708140 93 61 46
1.2793933998334410 1.7687116321225809 2.6313644551809023 110 119 114
0.8945904612028028 1.6789545828029018 2.8430142773601879 173 175 172
1.5395527784516956 0.0694080668851216 2.9021460785082240 46 48 43
1.2549499831195208 0.0926265206183950 3.1827339107994024 23 28 22
-0.3752217108261853 -0.3950500783268772 2.6578886253772644 174 125 46
-0.3984999855774572 -0.3769043987309073 2.6277247878158088 120 62 0
-0.1930781624371152 -0.2316884795035784 3.4672273192549006 141 20 12
0.5249834960388954 0.3280496887556456 2.8572120944719788 64 70 70
3.0189511011626688 1.8931569729703981 3.4494608220852170 129 134 130
0.2318533398564242 0.5669520681927004 2.5662296861313281 3 5 0
0.3081504731088687 0.6740610705978430 2.7449902599260576 13 11 0
2.0592584087123873 1.8802482516485819 2.9460942860218768 92 89 80
0.2956085841123867 0.7216840147717550 2.7860583368150338 4 7 0
0.5694473770486311 1.0383983291810766 2.8844288287023243 4 7 0
1.7785148008894793 1.8721253815803209 2.7431943775652519 123 125 112
-0.4704888198383814 0.4331672322058702 3.1140244824452008 103 107 106
-0.0314237600084869 0.9160358739106412 3.1376797167038295 39 45 35
0.4444055568054848 1.1678461196764860 2.8445398366947661 127 129 118
1.4141248645625104 1.8930650204161206 2.5994595603091266 45 45 35
-0.3392757836384105 0.7639664901457488 3.0178782440768388 143 153 152
2.9032180816105893 -0.2271768235614181 5.6611623853768931 136 140 139
-0.4373016246675055 -0.4707085126306788 2.4891673560012642 105 107 94
-0.3495113873216176 -0.4679206042032713 2.6232079597926461 39 45 43
-0.3850008692815994 -0.4121470053969759 2.6369449350151832 148 94 22
5.7961500096681045 1.7839161267251737 4.9769755653421726 31 34 23
2.9037677100112558 1.7650623814497153 3.5577250942519458 54 61 53
0.3360199740969903 0.3987213942934797 2.7952911408260985 5 8 1
0.5472789429184530 0.5276827460166619 2.6347662574374953 53 55 52
0.4029404645502506 0.4877317631639285 2.6227566532199567 106 114 117
0.6543253500934579 0.9011689154661291 2.8197053851649581 4 6 1
1.9189973739699775 1.7844778578064495 2.9839422821070096 140 144 130
0.3991727444687889 0.8566245546904265 2.8655681779430489 8 15 7
-0.4304955434381629 0.3629835762488034 3.0557867423176437 51 52 46
0.5194452146868669 1.0293204395120583 2.8444167402401392 137 138 132
0.5249917478169520 1.0581157981137927 2.8867485980672245 19 25 15
0.5051116353733346 1.0725663600656865 2.8714239967997974 127 131 132
-0.4581983689684830 0.4756510611894835 3.1340273721295984 36 38 33
0.4672537097746365 1.1271944756523427 2.9006847182346487 10 16 6
1.2202858025679295 0.0442996322238951 3.1801110978019067 110 118 120
-0.4408492014225723 -0.4267301583667255 2.6440560340992363 35 13 2
-0.3674108273579171 -0.3847635639724430 2.6674116455778440 25 25 17
-0.3896948416528253 -0.3869880156329520 2.6355810461701425 203 134 13
-0.4695435067714217 -0.3846855464748012 2.6758494354564677 156 98 16
3.3275613989625907 0.9254466113434482 4.7739598753227845 121 120 115
0.9893492129485316 0.0749435828529149 4.7911020438017484 191 194 201
2.9430755185661801 1.4820966055463594 3.9093170557666519 130 122 109
0.4165985591284609 0.4542530537183231 2.5652835217286927 96 106 108
0.4917686284042833 0.5153189468335030 2.5904799205675464 227 236 243
0.2966663824840082 0.4720551982638997 2.8815037388629046 88 94 90
0.5853332704792737 0.7191398598444689 3.4828395132179932 161 167 165
0.7673661241647580 0.7285795238204050 2.6228659720713408 71 69 57
0.7276537645659457 0.7530860795582358 2.6059130722876773 63 61 49
0.6665700890206140 0.7111561757683998 2.5506749763302761 63 61 49
0.3180264073160180 0.5289641338683245 2.5823710268621789 87 88 83
0.6418890687466698 0.7521395873067298 2.6741775508905383 9 15 5
0.3239917418968298 0.7002019915229462 3.1762103979690246 26 31 27
0.3003381470216333 0.6016372348025329 2.6432067186635009 83 83 73
0.5302856668623729 0.9072750243810909 2.8426470934934618 29 34 28
0.6130854789205661 0.9692875291758425 2.8611652161286401 157 157 155
0.4702138316137652 0.8565412440856293 2.7389618951334964 17 20 9
0.3166013956900888 0.7904995667755662 2.8180773430092283 5 6 0
0.2088212134831990 0.8392093979208932 2.8370123336150419 73 74 66
1.4326102476652824 1.8130271120544232 2.6734030420031174 18 12 0
2.1562408614107818 -0.1679068529845476 4.7741769313821703 150 154 153
-0.0726758966591428 -0.8358252228152397 4.8976404133126543 97 104 97
1.2695739034368954 0.0199860103889174 3.2297718100047970 45 55 47
1.3089703297316542 0.0643077628424121 3.3237343322962909 13 16 5
-0.3760752946667789 -0.3713479398146520 2.6443370172816025 29 26 11
3.8306157277747190 1.2973241486268323 4.4554563093453003 124 117 98
3.0728820317182541 1.8181212545682086 3.4516537666568423 153 153 143
0.7229166056834568 0.5735909408277211 2.6387733402646449 237 246 253
0.3961085333759755 0.4219737523094335 2.6117882559195431 3 6 0
0.5591985419984293 0.5806685595963658 2.5873477602896950 239 246 252
0.5147758768755497 0.5640857008820962 2.5994776752774471 238 245 251
0.3696955770675975 0.6888575016626869 2.7418428893701723 3 3 3
0.3462669311036433 0.7821970092091617 2.8134856529022620 24 27 18
0.3311182084322863 0.7900060702889756 2.8880917558422174 11 8 1
-0.3900583923775326 0.4100467952101966 3.1780469442976576 155 156 158
2.4388015058625871 0.0890472284282395 4.6780927017942302 61 70 69
2.1747202073349792 0.3947317931710617 3.1978352127113125 136 129 111
-0.4095198660280288 -0.4250584405176231 2.7022083095842779 209 146 15
0.7587336742099170 0.4346627795592294 2.8813914279581088 174 178 177
0.5022201308663620 0.3310818256581826 2.7949271268501255 190 197 203
0.7271247960675841 0.4789471348234113 2.8043531698667619 49 54 50
0.3246626821055570 0.5623302095207734 2.9337547308799379 174 183 182
-0.1636227670212042 0.2208429767332663 2.5101106748202882 87 19 10
0.3716121682569791 0.5455777505752430 2.5584258064459435 54 59 62
-0.2636714772103442 0.1765119136373796 2.5246247801977142 172 138 110
-0.2953162115488688 0.6625806362308019 2.9545193859067345 128 129 131
0.3238830020102608 1.1706542180957069 2.8969201718794846 17 23 13
2.4708004458898500 0.1510058497823032 5.0345128992266428 134 138 139
-0.4716680654641760 -0.1307711772755253 2.7962947132458615 221 152 23
0.5563206914071852 0.4919790274797600 2.6762219446977227 225 234 241
2.3170210694056981 1.8402874404992366 3.2039205304911724 76 78 64
0.3008974796629502 0.6073224682534536 2.9875520737070649 34 27 17
0.5311646125567659 0.7988896638974238 2.7126068851529652 1 6 0
0.2544395610430662 0.7426817460926858 3.1799950134248500 24 30 28
0.6500344013546263 0.9260381713009445 2.8212890377872490 154 156 155
-0.3441633966997098 0.7279529715703733 2.9915074733292273 144 145 147
5.2565465436164063 1.6599438088676550 4.7840588474386934 113 115 104
0.4450829018291869 0.8751975684003847 2.8659022860734091 70 78 81
0.7852081742061207 1.3516900113464925 3.0182033889800661 154 154 152
-0.3133572397054774 0.7235565161474231 2.9520176305823864 82 88 88
-0.3227084237922156 -0.4205475074264607 2.7328957008590882 200 204 207
0.7464732856731081 0.3787489576191393 3.1542560783621796 171 176 179
1.5173459591588430 0.1479658909670172 3.3547290693718845 36 41 34
3.0977156515169684 1.6913879488254242 3.7564870620040343 148 141 125
0.2835577308379997 0.4467872088823632 2.7751794848405975 6 7 0
0.3700951382917573 0.5968940193917844 3.1132278890807887 176 178 177
-0.2892805658290232 -0.2037285586487290 2.9071199952626832 154 15 8
-0.3703303634829985 -0.1123155141969086 2.8300181156205970 132 15 6
0.4478292797265220 0.8477032115198699 2.8914511458549219 58 59 53
0.5489714478569380 1.1641489873384741 2.8974138145958812 156 158 153
-0.3866056993297751 -0.4604621956707057 2.6576695761848339 25 28 17
1.9023411807876349 0.0372758228210932 3.6593935824827497 186 188 185
-0.2143111864714067 0.3827918078874103 3.2303246403840369 166 23 15
-0.2820493448924059 0.6147354953038870 3.3385991928209937 140 142 141
0.1000476217083479 0.4081780255753773 2.7673959028159381 173 174 178
3.1023717074102661 1.5562112905778334 3.6854190726546565 148 153 146
1.7092534745868844 0.4893042689240087 4.5836241064182950 151 151 143
-0.6989845331842544 -0.4367745282202682 2.0646583233841809 144 146 145
-0.3926852546569281 -0.3682931701087068 2.6357306768478543 215 158 55
0.9318242797865616 -0.0356762168899587 4.8659597859043089 70 79 84
2.9743996810398241 1.6146636624885853 3.6613018066171295 70 73 66
-0.0579922962397195 -0.1102484611705704 3.0416339495714682 187 90 83
0.1939866524210537 -0.2029325990306069 4.7949036739533195 130 147 163
-0.0679128503812756 -0.2925708487540380 4.3685649624990406 75 86 80
-0.0822333262843432 -0.2888958926629570 4.3158322986683428 21 32 36
0.7147109942986747 0.7297305379012895 2.5889457197712233 68 69 61
-0.6235065858107220 -0.2623051393371204 3.0426264689670579 88 97 104
0.4426362153319639 0.7310697477147452 2.9948804666131048 142 142 142
1.7053930581924215 1.8764417518288361 2.7286233982509507 63 63 51
1.4301590378411384 1.9285376062466668 2.4650313728507993 31 33 22
-0.7047063301325652 -0.0841251757062829 2.7242387981487117 188 80 70
1.2108662930882821 2.1069431094189421 2.1714262149340127 91 101 90
-0.4710917484553555 0.4519701704718778 3.1101940634040544 104 108 111
-0.3399660615773708 0.7634574678704498 3.0209909736021037 141 146 149
-0.3889395866346121 0.7428422136836972 3.0396066677343718 147 152 156
0.1643563327738388 1.5188113094555726 2.3786628670374657 43 49 39
-0.8276694411990301 0.5895037268527320 3.0346093700913253 227 243 255
0.2214175548558042 -0.6124092139445009 5.1680587272319656 32 38 38
-0.4041547794849180 -0.3797371172764950 2.6179154106355225 142 81 1
2.9291838160749655 1.6151253677509907 3.6227336200885056 161 157 146
2.2885617845998016 1.7355485288577692 2.2831575180259809 161 121 52
0.0167450335889013 -0.2892709782469788 4.3799893757284316 196 205 212
0.1253790045334813 -0.1955355818082106 4.6752727595533150 137 154 170
0.1247060998824473 -0.0600733549362190 4.5334361665442620 161 166 169
-0.5274410463351109 -0.2235649938521318 2.9404516867056274 86 28 17
-0.6263041076865550 -0.2555882928745047 3.0591684685716882 72 86 97
-0.6197614397919475 -0.2531648378058455 3.0734464334281979 72 86 97
0.4908604470225431 0.7465224071920484 3.0257982819047937 26 19 11
0.2443768225177905 0.5902265070827022 2.6470213976464909 13 18 12
-0.1447188009130103 0.2560247712676875 2.5649429093042091 98 85 77
0.4719497294383247 0.7977107062621489 2.9425661186356709 13 15 14
0.3303378996798866 0.7084812753698809 3.0104922307707231 93 88 84
-0.3743677201565484 0.1899151105423254 3.8432961469632545 217 234 241
0.3846305846712026 1.0807443273625863 2.8091012796268502 39 42 35
-0.1837360926052965 0.6741679027348899 3.8825544810369821 119 121 120
0.8685646225550144 1.9572912097624062 2.1934943533783269 57 68 62
-0.5788048659899926 0.3205053492186557 3.2799866631506522 128 138 147
-0.4655867158096740 0.4684183644215545 3.1172543468579423 53 58 54
-0.0553042586517893 1.3283330730695668 2.5220243764681798 42 45 36
-0.7868197309850307 0.5863401009845906 3.0904180008112050 96 95 91
2.8656480129074193 1.5830790438225772 3.0731063724849856 72 64 45
2.0448551203188283 1.3310327261757440 2.3204120658829175 152 121 64
0.1513379483299375 -0.2084146908176764 4.7280781150897466 124 145 164
0.1109467643089329 -0.2193474987261314 4.6390620362537192 124 145 164
1.0247684843455958 0.6865189234361527 3.5530024136196308 87 89 86
0.5933789637067839 0.5437500712674247 2.6354307441969569 69 79 81
0.5521880175170150 0.5478091713675316 2.6060103497000080 213 220 226
0.5152462173354382 0.8190178290150020 2.9598097608968024 105 103 104
0.6306185735310560 1.3104492463117408 2.8931002848599054 162 164 163
1.2496566014822938 2.0917192968273812 2.1528986378867478 145 153 140
1.1998037593451500 2.0767445623486132 2.1906427925766065 135 145 134
0.3567275355053207 1.2310001042603660 2.9458021287594507 18 21 12
-0.3941291581584354 0.6348752327220417 3.1798720174392625 128 133 137
0.0440429092669966 1.2005629484400471 2.7428982498994317 19 23 9
0.0416745598830565 1.3481647020944127 2.5447042526310426 46 52 42
2.2652599133144271 0.7229670559220409 4.5794014500409670 83 81 69
2.6493970301852525 1.4613395320693976 2.6233458572170623 52 36 2
2.6801327944577618 1.4947691097607725 2.7601421194315119 13 6 0
3.2828625218675427 1.7675779686199811 3.2334112837102307 150 150 140
1.1542858104287068 0.4009417494053766 3.4137332589149025 143 148 154
2.6923511054971714 1.6107182867912335 2.5015908526230248 78 67 37
3.1720994304946788 1.7899046729567076 3.2994186827313419 179 175 164
-0.4743839586864975 -0.3646147158278942 2.7116329155983938 87 66 35
-0.4853437266384703 -0.3391552528442323 2.7270827512898270 103 76 47
0.5711347130983706 0.5992824063894684 2.5600541156336449 45 51 51
0.3169835460752486 0.5856588316636772 2.6522148003003130 2 4 0
1.7400254324859399 1.8664680784135717 2.7315671104854804 40 46 36
1.8231228698567006 2.0989686341758409 2.5998046759191324 12 18 4
0.5327484688068588 0.8692166677678209 2.9274351897702213 109 112 103
0.3604991693079144 0.7318191534397323 2.9873239051194238 103 112 109
1.6218981547354616 2.0181938326903737 2.5230997192197440 10 14 0
1.5013334169302304 1.9174224267159008 2.6105998226113614 109 111 100
1.0293579652212734 1.6783174533382412 2.6641433187777155 166 169 160
0.4107221776185384 1.1194845708249033 2.8709889505586013 10 11 3
-0.4314511002732118 -0.4363107811383778 2.6466587912901112 161 107 19
2.5630510487506508 1.4728810366449412 2.7168342906184599 142 116 55
3.0322701447632521 1.5473274891947659 3.7655946728832670 173 173 171
3.2053538366522560 1.8012003035008051 3.3827506665569933 192 188 177
-0.2431634176714223 -0.1666127600954311 2.9984278056808953 186 141 118
2.4337392861521723 1.7997113031906162 3.1511916650625054 34 37 18
-0.2259068038004737 -0.1257439456167058 2.9346353029072580 52 55 60
0.4458373206982261 0.4634784039333105 2.5211808963935982 238 245 253
0.2552475096057303 0.7756523253383095 2.7875189265435694 93 95 84
-0.5976092455363649 0.0882031967474219 2.5257282598778081 189 65 67
-0.1913919627019054 0.6262721636154874 3.3333027147293617 140 144 153
-0.1664463012780428 0.7016042776408032 3.3580939316502940 140 144 153
0.8437689183599492 1.9332424756507229 2.2138830205189941 7 6 1
-0.6782852220406053 0.2903894832592737 3.4547894138196535 97 107 99
-0.4707884576582574 0.5290756091982398 3.1563240000825612 120 121 125
2.9790401728821321 1.5269039974073224 3.0158588910833273 12 12 0
-0.2046498034138622 -0.1044858108796407 2.9517119636563023 38 40 39
0.4002661688960314 0.3870300359879553 2.7696485734708238 3 8 2
-0.2317013591390138 0.1881523848476657 2.5030086196720029 186 158 134
0.3485127297064754 0.7567509116369779 2.7323604847670757 29 32 25
-0.3095579714618834 0.7191786364719885 3.0353763405477774 78 87 84
1.8064778929691672 1.1440015220985189 2.2324205656024940 150 127 73
-0.4192143817334512 -0.3254674255695817 2.6829223018307911 29 22 12
0.5828601645081036 0.3301422456228652 2.9254029019919217 174 179 182
1.0558934583543327 0.7237645340563569 3.6720144004167476 148 158 168
-0.5953254810866545 0.0418983091128881 2.3249439463901429 120 125 131
-0.0469033261153171 0.9375269949296968 3.1122594914031856 139 142 147
2.5130371719242515 1.4946061966266153 2.5207729148990410 69 49 16
2.3557874094649844 1.5630825754815350 2.4524472474507122 165 172 164
-0.4047318246336868 -0.3102989503986894 2.6728276186592428 187 192 198
1.7565088310474026 1.4055431037864861 2.3184875078228213 163 131 70
0.4189020039071382 0.7420034113443492 2.9540301392784154 4 5 0
-0.3976339931620371 0.0815600694992710 2.3728978633692255 24 29 23
0.4133443016668997 0.9840747656498277 2.7996004414332560 3 5 0
1.0963679463924003 0.3677432342457099 3.4200227877706051 178 182 183
-0.1800062746172285 -0.3435091144845491 4.7093989214349872 139 151 149
-0.6432390915074874 0.2095302785821648 3.3575241435351528 88 99 103
-0.4491304411772293 -0.3975379346799088 2.6495318263168399 197 131 18
2.7287426746572456 1.5749689923175203 2.6650421883577295 56 40 4
2.5016418194487429 1.7116498974782886 3.2431570976432669 160 168 170
1.5477539778230625 1.9500866567878949 2.4438767212402976 3 4 0
-0.3859719447489530 0.6966053710421179 3.0366194675250990 143 152 157
-0.1482055722382855 -0.4415954796138344 4.0158798571652143 177 185 188
-0.4625965430477543 -0.3229285879323306 2.6805102299205572 14 14 6
-0.4237555491365148 -0.4803581386029835 2.6339189195211046 174 180 176
1.2267591687922874 0.2973933725380903 4.0874048116707815 147 147 145
-0.3889635075708694 -0.3979009145782006 2.6183319560539156 191 192 184
-0.3797569058007861 -0.3846805513690447 2.6353517986041881 112 101 81
2.2854630003417062 1.7528008803307304 2.2766856173519829 19 0 2
-0.1578236175454870 -0.3364588421240254 4.2840019297979497 167 178 174
0.5193179346987364 0.7660388368711180 3.0265195439001040 180 183 176
1.7282893244958444 2.0282745945869642 2.6580455332818191 91 95 78
0.7688588237195160 1.1344271492799263 3.0044770407617669 42 48 46
0.3522692112859359 0.7565693632367215 2.9502833303182787 72 68 69
1.4590848424489691 1.9090725406725757 2.5939743308722689 59 62 53
0.2801236780362891 0.7804690505367996 2.9117385525299113 5 5 0
-0.5809843058836944 -0.0713620267873458 2.7760958195043703 189 56 51
-0.6847126620162819 -0.0960048803622350 2.7045623642477659 197 61 49
1.2248268474444244 2.0675545406042648 2.2729428150254769 130 142 128
-0.1159969646527064 0.8643929421331570 3.1526676968465033 140 144 145
-0.0889216831286875 0.9369095459540266 3.0632626728774039 113 120 128
-0.2496407504704677 0.8491351104665247 3.4566702683949311 61 66 69
-0.4215284371697312 -0.4678215092779934 2.6026711905917295 43 52 51
0.8313566200850202 0.0860793071525640 4.2943287874240168 180 189 188
-0.4746110876983158 -0.2849706072391764 2.8170260137775309 223 146 38
0.6206250449811577 0.6392602435654309 2.5683351750402625 217 225 228
-0.2202371515211395 -0.2786264794512704 4.3957814038058656 76 86 78
0.4713084735851822 0.7514850441542101 3.0341729385449621 40 25 20
0.4957966883127141 0.8180476036856927 2.9628988073502307 0 5 0
0.3305098720221247 0.7083143543803310 3.0111156149222476 93 88 84
0.3834983981287127 0.7635010441952216 2.9262332058265845 69 60 53
0.6456767768956285 1.3562761974962285 2.9121587700699649 62 68 66
1.1828527347657349 2.0617817719275573 2.2278988273271074 129 142 132
0.9487906806000186 1.9167280507846955 2.1520878516083730 9 9 0
-0.3478570775366328 0.7654781950016091 3.0271887392507648 51 56 50
2.6958262710389618 1.4220338317853238 2.5966837358307875 124 98 61
3.0421099840996417 1.5163340021222023 3.6755222602857676 98 105 98
2.5815264644583200 1.5553947203589613 3.0765675351163604 30 28 13
2.3486513867352068 1.7411870757943042 2.2996548296425758 49 29 4
-0.4885851075248106 -0.3225186194047681 2.7400117718248187 124 76 30
-0.1676399235162525 -0.2851397398278046 4.3429180759464625 17 26 21
0.8895966689621619 0.8213660929833924 2.7833183024675399 232 241 248
0.5249971287847266 0.8274067346356272 2.9700725996978292 95 94 92
0.4834322167123145 0.8095511880000150 2.7253559919247992 120 125 118
3.0930946674260462 1.5311249137477496 3.6670205795222075 99 104 97
3.2595656726920255 1.8004736539105255 3.3193228861338007 129 119 107
2.2397825268839853 1.5744005845911988 2.9640327621960760 171 161 152
2.3672486535868571 1.7907363206279141 2.3103259104776348 163 123 53
2.0901556718480920 1.8067585200556895 2.3308862105538140 111 72 29
0.5777882170334124 0.7843177222936110 3.0994429767617104 54 56 53
0.5922874304967297 0.9070178084446902 2.8693189308126072 162 171 168
0.2906195823000898 0.7485189862722441 2.7882794459077194 29 31 20
-0.4498299472803070 0.1738059167811651 2.5125242446951459 94 16 12
1.2217910577894113 2.0519343473072222 2.1781769580635832 149 156 148
0.5786847005254726 0.5406218972954805 2.6057306638590880 233 240 246
0.7009783928327555 0.6573930373814300 2.5818218703129463 197 198 202
0.5492445154569151 0.8616764470395977 2.9378719089469647 20 28 17
1.6309851342738464 1.9291076998878127 2.6548855146387909 124 120 108
1.4537923603584786 1.9022342678784283 2.5904220736934773 5 11 0
0.2787326389224289 0.7573498050470296 2.7711382454568634 94 93 88
0.2734346620994079 0.7822735240719058 2.7707517313892129 4 5 0
-0.2981812662094174 0.6767163098243625 2.9096198782270908 144 153 158
0.1611383998133095 1.4505474106418215 2.4674493649642026 14 17 6
-0.4632635852789957 -0.3910877771332688 2.7221454176966300 191 196 200
0.5518881174564837 0.3936844888069492 2.9448882297168608 58 67 66
1.6056354522496519 1.3097479500769833 2.2772389199635303 159 127 70
0.4958089851722793 0.3938466176686876 2.9356118639924045 161 169 172
-0.3164413890441040 0.2357736426893967 3.8010326851220642 201 204 211
-0.4508881296954991 0.4251594892722386 3.1128344326165687 66 71 67
0.3938365890556424 0.3730926663186082 2.9688418736861544 72 78 74
-0.2251273369937965 -0.3102480355359468 4.3552226464524271 33 43 35
-0.4914011005082462 -0.2706530167691609 2.7833788394079599 32 29 22
1.8933298460157137 1.7102004906184975 3.0261510728156935 165 167 164
0.3205563089194328 0.6355871949171138 2.6370854210031429 3 5 0
-0.4899032887528164 -0.1082990266335464 2.7971132461222750 15 0 0
0.3453482784354752 0.9647174604615331 2.7903626999530569 8 7 2
1.9495851195574627 2.1252770493575612 2.6413633835480188 109 109 99
-0.3405774444542594 0.7320240842228263 2.9993551242117253 144 145 147
2.8233151724262524 1.5351768279372626 2.5962679085699047 159 128 82
-0.7606885116209308 0.5634096522692852 3.0979855339288851 140 145 149
0.4011394958382633 0.5189523423837333 2.7400420541089554 10 20 12
2.3040367434804971 0.6733665656046337 4.5899351865732934 139 147 136
-0.3914233269529015 -0.4737356388347999 2.6084506062648858 81 81 81
0.2959738958825948 -0.5259757278355676 4.9266622712688912 175 184 181
2.6861752866672619 1.4236117430486304 2.6412403092572969 74 54 17
-0.4281250776538395 -0.4127502731082598 2.5797440676063004 229 176 62
-0.4649517714113912 -0.4241884284388585 2.6934932941491927 73 58 37
-0.0444993544027314 -0.1007155986317893 2.9578561534506465 137 48 44
0.4763365387764321 0.4893630569360228 2.5736073278302833 36 37 39
1.7116835142798317 1.9574265300806304 2.6008325451696437 51 53 39
1.6469615887973288 1.9523116267746530 2.6249725639205788 91 89 76
0.5349831412599650 1.2733843390823321 2.9212245657687208 120 122 117
1.2760229331875808 2.0673743932411495 2.2735475009589563 164 158 142
1.2159760527491281 2.0255150833739903 2.2891369031619231 149 160 146
1.1887328327098652 2.0107879726730689 2.3112702286533371 54 60 48
1.1207655668548349 2.0314922817977963 2.2128406887697465 51 61 52
0.0716975945878631 1.0367702089275397 3.2573200065553518 123 131 134
-0.0890265027622388 1.1391998322893715 2.7478107520888244 42 44 39
-0.0885162656598723 1.2549687454680185 2.6085096257793494 49 49 41
2.3608236713636135 1.4542494399384578 2.7313782481069158 192 181 151
-0.1239302573317018 -0.1546142483620102 4.3797928283298289 150 157 163
0.5014212038476189 0.7426673047113820 3.0560400569223303 142 124 122
1.9673571980703322 2.1278936424829253 2.5952560473953556 97 93 82
1.5611522905010813 1.9624264200228421 2.5289120282022335 105 101 89
1.6112621234698805 2.0292781565194988 2.5026692887049884 64 68 53
1.4472874514232803 1.9538797601972209 2.5825204839277189 122 128 116
1.2661670063647492 1.9186568973018743 2.4292831942045265 106 107 99
1.1177829032841946 2.0655168005045916 2.2280571197595633 69 81 71
1.0799335876863467 2.0575333574355978 2.2305074153532325 74 77 66
-0.3423579794314354 0.6324759744355362 2.9629648586091237 105 110 114
-0.6036192293116805 0.4760644510508241 3.0652135701751240 116 121 124
-0.3949075666086677 -0.4262686218328526 2.5900745313872520 178 179 174
3.0523776661221063 1.5894734652483018 3.5827888166210418 115 117 112
0.9344581876321102 0.3653353115844024 4.3220236586064491 174 165 158
2.3076750116301059 1.5439241951307792 2.5755445113729363 113 77 19
-0.4804958370828903 -0.3361820321881724 2.7347324325879558 90 54 22
1.5262164807721379 1.9652336801726504 2.4928141438030500 122 122 114
-0.0019848453433312 0.9254739971432491 3.1189585787703478 21 27 25
-0.4040271951120910 -0.4992255540279131 2.6294811256416595 254 255 255
2.8425272127148498 1.4918018775124735 2.6671476393495510 161 136 95
-0.3941679344846728 -0.4254320550630782 2.5905349437964738 183 184 179
0.5777071107374295 0.4845909861046865 2.6926509442746558 234 243 248
1.8771034286774193 1.9526750413409630 2.7160496983360707 117 118 104
3.0422390669113013 1.5757060014527142 3.7277376022862954 11 17 7
0.4987347848854592 0.3271516871695718 2.9036847328930686 181 186 192
-0.6380357247273243 0.3084720798685437 3.4613532624035179 78 87 82
-0.1344938848468810 -0.4832715139905753 4.5754113293620211 194 204 206
-0.4747115581027122 -0.4043878821917416 2.6837572761184463 43 39 14
0.5082513278784144 0.9708651121933898 2.8053105265806275 160 165 168
-0.3088985357958549 0.6397874341856513 2.9119951256412806 131 140 139
-0.6860355205307105 0.3388498070177547 3.4555572623474031 83 76 60
-0.4002992232455776 -0.4920576412116123 2.6081235857442984 2 7 1
2.2787679356185380 0.7160749950377318 4.6225466275378775 97 100 91
1.1705116347809206 0.3261329994312613 3.3916855785364470 167 169 168
-0.4124455167334921 -0.4638999544964877 2.5913627605651453 7 15 4
-0.3784121333178874 -0.4119149071825901 2.6103523591573841 182 189 195
0.2817262407925647 0.4871239380200949 2.8443656595292484 160 168 170
-0.3425271469401622 0.7276881594851814 2.9914945968473554 140 145 151
0.7075993091305141 1.9289967288913383 2.1524118165764978 133 145 135
1.6577256567481655 1.4078527931555143 2.2719194181859992 3 5 0
0.2165755758382820 0.5029540707565835 2.6245362416909761 3 5 2
-0.3517804265669522 -0.3507714289311492 2.6243731160091075 189 196 202
2.0442243123552011 1.4198115060785181 2.4874677720678431 171 141 69
-0.6560130904582154 0.4726191745894298 3.3115952445454910 145 152 158
0.3848274693894581 0.5099411081418267 2.7290583114742848 14 20 10
0.9689998168922059 -0.0187780443987166 4.8848921935522265 98 105 113
0.8999496365073187 -0.0292500930074422 4.8244341258980645 129 131 128
3.0748630337067335 0.9106298610373362 6.6741682399016593 145 150 153
3.1480907311109521 1.7627887655906840 3.2443222017656619 117 110 91
3.1006351612447220 1.8610354248186767 3.4784450501038839 150 150 140
0.5518087809917117 0.4542425115250815 2.6809416822468819 32 37 41
1.0098020298942154 0.8551545339996562 3.7184791211226220 220 226 226
0.5197182708225045 0.7547375512051343 3.0426634299985658 191 184 176
0.4549720531380057 0.8111504894155073 2.9629294690866304 21 24 17
0.2521439804474609 0.7955327188335437 3.2958420931820247 168 169 174
1.7838548753887065 1.9065939073289166 2.7327188836966583 121 122 106
1.7790240464365614 1.9264637799775135 2.6833947800365028 18 12 0
0.4414328060027014 1.0490633302604946 2.8060898902772613 75 77 74
1.3607125582701647 1.8051442463924914 2.6025663125784346 44 46 35
1.4490248526212031 1.9099601471042922 2.6064120832173061 111 111 99
-0.5756025293152084 0.1844499639153308 2.6877477762858057 130 116 115
1.3731439445299305 1.8714964645291359 2.5695460711065450 42 42 34
-0.4952851564902399 0.4681385466740109 3.1590503345255185 95 97 94
0.0192706997392844 1.1715744995819830 2.7709124809201029 68 78 70
-0.6526197387198994 0.7369969514465882 3.0817879904834728 122 114 112
-0.1028314753935427 1.1666003930293054 2.7139739560645308 41 42 34
-0.0255296955954404 1.2609929033021015 2.6660456447969922 42 45 36
-0.0460692412989983 1.2781482961347888 2.6229675990283914 46 51 45
-0.4970940489693102 -0.2824464332063040 2.7729581627816260 56 40 24
3.1712693780413717 1.8234316205330829 3.4350963527097007 101 95 83
0.8282156107709477 0.6076598756643395 2.7729742068542818 240 249 255
1.0459134351480890 0.8779028388938109 3.6847818903239657 131 132 127
-0.0703536993257509 0.2868383488864713 2.6162441975368380 202 116 119
0.4608329826313420 0.7477337345103225 3.0424990546640731 255 242 254
1.9781479997076026 1.9266693385345637 2.7921165521503477 102 78 42
0.6578695139492384 0.9670100314322116 2.9470225160473129 170 181 175
0.5350126655023897 0.8911057322807450 2.8833442631262107 21 26 19
0.5844032422474222 0.9293701942546804 2.8784197664643543 126 134 123
-0.9094309286036070 0.0771319270982565 3.7640816338806000 183 186 195
1.4397252939857028 1.8119316315529199 2.6408245576407845 14 8 0
1.4198425374555232 1.9035661117434695 2.6178671430941955 87 88 72
0.6121912234586914 1.3229255835488143 2.9182541214560143 153 157 156
1.4031193947060401 1.9282457334671950 2.5669686372131446 25 27 22
0.3821899145590784 1.1167421259076515 2.8616046031874656 12 15 4
0.3370962622911293 1.0548000803456419 2.7843517635508190 41 46 40
-0.4711726223840308 0.4716573737274652 3.2510558289137519 67 61 63
-0.4646791120614738 0.4863627969478976 3.1308375996860853 108 113 116
0.6383088018051156 1.7633788775350323 3.3236178235600424 124 133 132
0.1605566170587043 1.4485788101084318 2.5004960966521246 103 100 91
-0.7800084138079145 0.6845386711757296 3.0478609785026429 54 62 81
1.3301847224484078 0.2344571583447312 2.9823194600955798 44 50 40
2.3929801181952879 0.6483836332373639 4.6465736877006156 102 104 101
-0.3985696498962346 -0.3767555271169726 2.6263238358846386 120 62 0
0.1166868470134793 -0.2169365792722065 4.6440846411179173 119 137 157
0.6963417531087286 0.1410824479133397 4.5073061186966772 78 77 83
3.0628261287118601 1.5673464577397269 3.6235648894616044 168 171 162
2.7892450779769224 1.5388227963332164 3.7078783599622551 107 110 101
-0.5095639510169249 -0.2589582187490984 2.8134176495148839 54 39 18
-0.5692948252292582 -0.2744612976986801 3.0204530352345440 49 55 55
-0.5186308479248465 -0.2262107496796929 2.9036530304676242 126 16 0
0.9946957823930060 0.8783685414404439 3.7666335060262663 57 62 58
0.4864344796928867 0.4981752187568330 2.5822621370253085 14 16 15
0.7147509491255077 0.7261824281474272 2.6149720708965210 197 198 203
2.0289873026063709 1.8310713935014580 3.0170166009271155 106 107 99
0.2851604927477482 0.6273855494774754 2.6664890717354695 82 84 79
0.5531001653562727 0.9323239424212413 2.8404874068947117 139 142 135
0.2246263848695978 0.7368832468628165 3.1151057021606761 7 12 5
0.2219486638089462 0.7635648619896271 3.1388976980059349 5 11 7
1.6330503050160625 2.0715996940797647 4.3795204272607835 17 24 17
1.6748637158534965 1.9264212074602407 2.6977878551581607 115 117 103
-0.6367712456597271 0.2373448392449918 3.3678126244488298 230 231 235
0.3240846618830586 1.0528240113169463 2.7664806647362838 106 108 103
-0.8289701304889302 0.6337287933314284 3.1160983775032465 94 108 111
0.1461673663979291 1.4266747967069522 2.5309885202445130 106 107 111
0.1621967277962907 1.4617705131398691 2.4888181432242913 101 101 99
1.9767829127112002 0.5084173665437097 3.2022885466825688 110 113 92
2.2103754326547169 0.6747258702707921 4.5735904468233910 60 63 54
-0.4591296606378343 -0.2514684939762540 2.7083615992732994 20 16 7
-0.4957916626897061 -0.2596472263589045 2.8314276462898862 210 128 72
0.6070397713139094 0.5171525971916252 2.6770505006034235 56 67 69
2.1860526043275206 1.6084268110170010 2.8778320425202830 102 87 56
0.6888607613902810 0.6687733727942484 2.5698148475619225 94 97 90
0.3719484807115029 0.4693542448395884 2.5455661755712384 0 5 1
0.4263900702953191 0.7243247298447508 3.0320382140379833 14 7 1
0.5691730559733189 0.9130159031346134 2.8802994275306371 8 13 6
0.5760377536870837 0.9504101010316818 2.8869121803374704 17 20 11
0.4987202071903434 0.8861226929255812 2.8589685797836513 2 8 4
1.7513173440967309 1.8742700298715655 2.7362616771739190 30 34 19
1.8222931269902825 1.9603777380020115 2.7233420283057792 118 116 101
1.7433081118597846 1.9378340648648893 2.7044629951156689 1 11 0
0.2548125184627609 0.8091968232190653 2.7994879534111923 8 9 1
-0.4816811496480044 0.4171594022275461 3.1102780779593702 121 130 137
-0.3310783053534014 0.7467491652565095 2.9763839777936791 63 71 73
0.1418476523538763 1.3975017417267572 2.5511585251927631 27 30 19
2.2981738191266405 0.5948495197958067 4.4907671962207250 28 31 20
2.3405177377127107 0.6647163301912807 4.5924346785536443 33 40 32
2.2594202626177751 0.6363350540387396 4.5939814693015455 115 124 123
-0.4677510195278919 -0.1767647502703336 2.7888529267559927 55 60 56
2.3179225447428666 1.6063374624507394 2.9094415950220349 45 37 18
0.9935750813353705 0.8244607227974970 3.7083263978656547 54 60 56
0.9579540255782535 0.7981886431627905 2.8696105939738210 234 242 245
0.4839451591719954 0.4951546895477503 2.5612361649870428 229 236 244
2.3410104622548924 1.7526919091357280 3.0168275984672293 30 33 14
0.5490044056191928 0.7022145468877640 2.4805339320594455 200 201 206
0.4124461701672071 0.7378220348750660 2.9820996922622438 6 7 0
1.6015795342761359 1.9862231577743790 2.6263524542838139 5 8 0
1.9593365825132956 0.4933957398536413 3.3169852320373594 110 112 90
1.9851038571076807 0.6351237248198677 3.5472114767767571 170 168 169
0.6633219985287380 0.4453803871710501 2.7432343813286848 67 72 76
0.4760153688668304 0.7887514002016729 2.9855156751892742 4 3 0
0.3762475088156481 0.9896541629684917 2.7743281074075314 145 151 149
3.7300549006244350 1.3369609997112202 4.4317139743835474 14 17 6
1.9600364430267190 0.6237698270894825 3.5338871630608897 168 168 168
-0.4719960395080183 -0.4395106945466553 2.6657294385896826 184 191 197
0.1982455346669247 0.8242734779061061 3.3179165386013132 133 137 140
-0.6802257472611313 0.2590129208587302 3.4640516371379286 166 170 179
0.2944426169805269 0.7491276263250282 2.8288740775174226 21 23 12
-0.4768590268668308 0.4732964225488376 3.1427175265536937 66 66 64
-0.7744252876716812 0.4893877455839244 2.9600068854822021 83 87 96
-0.2225606058612541 -0.5123340827817301 4.7950650855780541 141 149 152
-0.2582266247571992 -0.1271990479032293 2.9378308115755041 235 242 250
-0.3954025222380040 -0.4452204435238376 2.6389470009486939 8 14 4
0.0749941217995356 -0.4086097605670877 4.6098951377772766 167 176 183
0.6799403092346005 0.0887777070500903 4.1982131842859047 206 209 214
-0.4502054036454515 -0.3189766911790891 2.7008991206421342 14 14 6
-0.3581885691064595 -0.3054461960866802 3.2004681803668218 169 177 180
-0.5341299710187134 -0.1376513218003007 2.8369315754279589 60 22 0
2.8111763723918100 0.8148964466662293 6.3329482519402358 145 150 153
2.9111756011410921 1.7373886186249201 3.4181828653524242 157 156 151
0.9721026644955613 0.8515063986626717 3.7578518947531570 198 207 214
0.9481390853966112 0.8360903008428379 3.7300776175457098 198 207 214
0.4257086573509217 0.7279788653542358 2.9789467897899380 8 13 7
0.5715628960158899 0.8487523646549328 2.9721058701413252 90 91 85
0.2780899620962660 0.7577291823923427 2.9489125357789714 144 146 125
1.7190080073131935 1.8176750958084236 2.7364631281218768 48 48 38
1.7404131274906169 1.8903531393596666 2.7339180057284240 103 103 93
1.7256201512746741 1.8827254952704342 2.7402814988281499 57 57 49
1.8519337418215820 1.9971911533640587 2.7655620862874342 33 37 23
1.6876902914658092 1.9819730113058824 2.6565790983514663 27 31 17
1.7453011794025690 2.0411320157869812 2.6529328029073080 24 25 7
1.6114260866446057 1.9747348280424044 2.6167202314111528 10 19 0
0.3909239286435707 1.1013566862732556 2.8277095079115084 92 91 86
1.4670416302449021 1.9512252054453005 2.5204059014130031 75 76 60
1.4033656437764825 1.8858520392591984 2.4594740693607164 111 108 93
1.3786499123283704 1.8647650188138394 2.4322699262991878 106 106 94
1.3668248577497499 1.8671961523356544 2.4397616548049172 24 21 4
0.8226871284083640 1.5395165357508160 2.6553154110440702 98 103 96
0.0456470415327129 1.2245792358229703 2.7174768583158317 48 55 48
0.3798228243998377 2.0056732947850242 3.2784830085656700 41 42 34
-0.0109406455654539 1.2923522240926166 2.6182576966559350 51 54 47
-0.0369788043613031 1.2940908659419388 2.6347567336301201 46 51 45
-0.3655610583518625 -0.3842878905776171 2.6547713304600631 98 96 84
-0.4839938755322624 -0.2516658138606670 2.8882988290837477 188 109 52
1.0089078229418718 0.8133543189817782 3.7414358370738774 113 123 124
0.9794936354834654 0.8280479136100438 3.7447466201273945 235 246 250
0.5333071374626491 0.6738708673930384 2.4867354326113857 214 221 227
-0.6364653754262327 -0.0873313789901708 2.7228984381717267 179 58 49
0.5232549976849757 0.8128004200451205 2.9901375602397438 94 100 90
1.8652368002848119 1.9791352011200822 2.7691935280308009 118 120 107
0.2577142370111372 0.8531090134036640 3.3373520942611528 45 47 46
-0.6398419383569904 0.2872374018332677 3.4160353456967383 157 167 169
1.5657572561543147 1.9136791044118742 2.5964402785055216 103 102 84
1.6806696186161396 2.0407522221540186 2.5415449406183086 15 21 11
1.2694543397386049 1.8104236260248578 2.7174153096366678 102 112 111
1.3051023147461303 1.9575395769790611 2.4470832977960435 120 123 112
0.1774296383573250 1.5357586785832356 2.3888795217782355 32 44 30
-0.0517400654511566 -0.3619553870836948 4.7343896999982045 74 84 83
0.4104167416534623 0.5306084194501685 2.5787928617172380 30 40 39
0.6012500972678650 0.9466370123422951 2.8587130849799847 180 176 173
0.2912473934807268 0.7818584385905152 2.9279309203728516 59 56 37
0.4685871115850608 1.1894188415641309 2.8425599653272466 120 122 117
1.2570112371032967 1.9397014789950497 2.5097368501091939 115 128 110
0.1468461695084045 1.4227379922224026 2.5480892038167866 108 107 102
0.2642177291749091 0.5385208600127531 2.9011815364157880 36 36 28
0.2041749552678795 0.8373421341960590 2.8344466509603627 79 84 78
1.4575541987741301 1.9750359189694344 2.5336050699230235 38 41 30
-0.2863702835530198 0.6872128778573114 2.9724267086686131 115 121 121
0.9801737769364182 0.8175506902944477 3.6966600455893803 54 60 56
0.2610089415921951 0.4747858767776112 2.8185171342769428 88 93 97
0.4766611027311618 0.7253382890356102 2.9856469396154455 129 121 119
0.3629130361732916 0.7320240507943792 2.9892271412580387 103 112 109
2.2578465732564035 0.5366669981551478 4.3455778213419567 27 30 21
-0.2910568555910132 0.6810595339952045 2.9200560259353332 111 122 128
-0.7861564461095751 0.4650079391650084 2.9391516900356991 76 76 84
1.1076161339335877 0.3075035077528769 3.3301541509161767 151 154 159
-0.5674871171641391 -0.1533588651422874 2.8098912699822440 21 0 0
-0.1708448543796606 0.7131217135437113 3.3536977670650803 150 151 155
1.1943325132261020 0.4617285872561424 3.3799240195925897 173 174 176
2.1294754039747930 1.4443825772408763 2.7271376211571798 185 155 93
-0.0549860472937470 1.0692186191406985 2.8023039265300245 14 16 11
-0.4814465816521598 0.4597581711445079 3.1189405681028570 66 66 64
-0.3949563629410086 -0.3667729297190554 2.6526046939464241 141 88 22
-0.4482669534016841 -0.3214810765947039 2.7000088760680865 11 12 7
-0.6530956943849681 0.2900276584718405 3.4335175545012859 66 75 74
-0.1993122896452818 -0.2601016111841479 4.2664011321411648 28 33 27
0.6719250376289019 1.0584065845203940 2.8450850451489704 169 171 168
