ply
format ascii 1.0
element vertex 706
property double x
property double y
property double z
property uchar red
property uchar green
property uchar blue
end_header
-0.3712863083403374 0.6912972662967938 3.2466579526948482 127 132 138
-0.2453412587139882 1.0013248825622421 2.9486087468825790 128 133 139
-0.2453412587139882 1.0013248825622421 2.9486087468825790 128 133 139
-0.0717672400596844 1.2815410064791692 2.6232278362734176 37 43 33
-0.0722103922534762 1.3457148018396110 2.5209251337282912 42 47 43
-0.0791486889289422 1.3396482835666301 2.5442604741021513 36 42 30
-0.0869408735064418 1.3237461011502318 2.5391182947465372 48 55 47
-0.5821197999406036 0.4784259886472737 3.0834630846725153 114 123 122
-0.8360132120899101 0.4872410841882075 3.2843789649832953 89 90 95
-0.8360132120899101 0.4872410841882075 3.2843789649832953 89 90 95
-0.3896328977944225 -0.3993274055841471 2.6242178160821394 34 13 0
0.5714485369428318 0.3493128077873314 2.8108528050262334 177 184 192
0.7575592060717362 0.5531376129641079 2.7180800958582534 138 143 149
0.6420137742064332 0.4727152388180153 2.7334973750583651 109 116 122
0.6552425662044367 0.6089431641367370 2.5880137506656298 199 204 210
0.5806732968684990 0.5555057341814974 2.6231628719958833 193 206 215
0.5948250656108802 0.6212107295793269 2.5499023450595262 201 209 211
0.1064807113191521 -0.1782518594905721 4.5940755145624346 149 161 177
0.1064807113191521 -0.1782518594905721 4.5940755145624346 132 153 172
-0.4874156238884221 -0.3204070723114947 2.7426082226476067 56 31 0
-0.4883427668047975 -0.3208574299729433 2.7421042691216484 56 31 0
1.7399079093867902 1.9185732774926154 2.7195395176238346 118 114 102
1.7089471738854671 1.9144677275270396 2.7361481183093299 119 116 109
1.7366065330758562 1.9582077696995541 2.6930624547931914 102 96 82
1.6558876939468499 1.9779573553732333 2.5980742411528639 47 47 35
1.6164779643941842 1.9412943397115761 2.6319256743774515 35 38 27
1.6245614951869058 1.9510361794083380 2.6340224909637566 37 41 27
1.4487773915351991 1.8268640201078812 2.5008167774713050 49 54 50
0.5373182981957557 0.8370101266129905 2.9593439239865047 56 28 24
1.2776782714872048 1.7425622808217993 2.6501180432457585 105 106 98
1.4016424760754367 1.9268485734166751 2.5670366782730372 42 42 34
1.5341397502937837 2.3240256942687179 1.8708132341446753 35 44 25
1.5341397502937837 2.3240256942687179 1.8708132341446753 35 44 25
1.2930391019812821 2.0851808132204841 2.2529068365352751 205 199 183
-0.5078538325504718 -0.1289074377165738 2.7890920849420104 41 1 0
1.2284673743417731 2.0838207214025615 2.2410941210779516 88 96 83
1.2058367867787980 2.0801106471421753 2.2330864069902741 135 147 137
-0.5514314650893916 -0.1515320085158854 2.8018018295442846 155 94 29
-0.6246680542213822 -0.2620598914669818 3.0428865070361222 102 111 116
-0.6247305899846709 -0.2625492220223904 3.0426140408004083 90 99 108
1.1736403127826542 2.0920430419588487 2.2305782499558200 52 66 53
0.9941186663870391 1.9056008148582138 2.1210076560701165 134 140 130
-0.3721744144897882 0.2097740946380114 3.8854595164190795 161 182 183
-0.6231932406934334 -0.0672110483593870 2.7003023379554216 192 55 49
0.5021864357235412 1.9319619515193105 2.1145193830759252 104 111 104
0.4986345604209663 1.9248376734567865 2.1121334284208180 104 111 104
-0.2837196281149649 0.7057684506795135 2.9156085135231753 90 98 101
-0.3068721750319211 0.6821128381640960 2.9316505758304494 84 91 99
-0.4947129637159236 0.4305918462110559 3.1746619618191323 65 65 67
0.1584360700734775 1.5012174815790100 2.4278707171324583 38 48 37
0.1611889526228198 1.5015315149793753 2.4291662448062676 38 48 37
-0.1108508575508472 1.0985258369730384 2.8030435696786067 57 62 58
-0.1651588304914314 1.1013592186926036 2.7803316984435220 49 55 51
-0.0428142594653420 1.3515775175345115 2.5340774728840554 35 41 31
-0.1600551927392724 1.3090945695999754 2.5845509188388047 120 122 117
-0.1569014026751703 1.3185167355267153 2.5866133545285539 117 119 116
-0.2551729933679085 1.2276335405686567 2.6437830837977478 131 132 134
-0.2329467994178264 1.2699299944581568 2.6005190407497802 127 128 130
-0.2329467994178264 1.2699299944581568 2.6005190407497802 127 128 130
-0.2919322267526542 1.2688471418089291 2.5934136931995262 129 133 132
-0.2919322267526542 1.2688471418089291 2.5934136931995262 129 133 132
-0.7795978193763858 0.6876479413660963 3.0513985358760980 30 44 55
-0.7798663709040827 0.6849009236744585 3.0482599655586866 30 44 55
-0.7788242056703155 0.6950626737754784 3.0564087501246244 57 68 86
0.5161829349960638 0.3108921652800468 2.8135259112504403 164 173 180
0.5607853584529930 0.3634069573812332 2.7664304185200570 200 207 213
1.0398022454438054 0.6521300022944608 3.6413130797939095 115 124 129
1.8600805856969547 1.6658591486305498 2.3051645468766409 128 95 54
0.6172682151420734 0.5423152624114557 2.6491799604160673 211 225 228
2.0576419322067423 1.8084571897424109 3.0462322654030958 135 134 132
1.9096617736140460 1.7966345883394612 3.0034040087489351 75 77 74
0.5218266403425096 0.6508459953283456 2.4901197901432899 223 230 238
1.7284527205299189 1.8594482952987827 2.7273397200419129 44 47 38
1.8239825675101038 1.9614325897888525 2.7240711036214420 126 123 114
1.9131183028310061 2.0761202597068267 2.5775246888575092 109 104 98
1.8758099747227091 2.0978503451174504 2.4977569406370157 29 23 1
1.7228267354034956 1.9748753388872662 2.6644982121260901 34 34 24
-0.4705474733219215 -0.2606752000433042 2.8741795632804505 169 37 22
1.4782290503486486 1.9993952333754541 2.4982016163419409 114 111 96
-0.5695103553117439 -0.2747167082257119 3.0167128259686624 56 61 67
-0.4805666326196698 -0.1414628917757112 2.7938964976868941 156 76 7
-0.5430056559120495 -0.1892400907235102 2.8104277935607511 164 102 19
-0.5091821972771702 -0.1382401090785472 2.7875119648570506 214 133 18
0.9940922864004960 1.6954497927533869 2.6931242227842316 164 170 170
-0.5494115230443167 -0.1868763694681067 2.8530958921146943 50 32 18
1.2409377999266284 2.0721205827071740 2.2482015683105412 168 178 169
1.2521131053212826 2.1123649559957074 2.2176236765761210 61 72 58
1.3110565789884028 2.3254339807449886 1.9805539632058238 33 40 22
1.0443611140474738 2.0525867898200922 2.2326173177618358 54 54 44
0.3021305520601761 1.0747055341595935 2.7660686415878684 135 136 131
0.2752582352759784 1.1059208253802570 2.8226219500930716 25 28 17
0.3170076750792668 1.1670351421426794 2.8555583365785928 25 28 17
0.8546227347675763 1.9426655701733024 2.1904045096278142 48 54 42
0.8546227347675763 1.9426655701733024 2.1904045096278142 48 54 42
0.6886557205899058 1.9880752914634554 2.0744192512229107 34 41 34
0.6886557205899058 1.9880752914634554 2.0744192512229107 34 41 34
-0.2740190896225121 1.2112702094626184 2.6603942184125802 130 132 131
-0.2951539286656648 1.2518815743777758 2.6044952824782408 122 124 119
-0.2951539286656648 1.2518815743777758 2.6044952824782408 122 124 119
-0.6255626415893499 1.0922303267278466 2.6425723148338802 136 142 140
-0.6255626415893499 1.0922303267278466 2.6425723148338802 136 142 140
1.6137617063793503 0.9269205195774342 3.8569399654961836 160 165 168
0.5873906281630020 0.5758146927854285 2.6001361415904971 53 61 63
-0.4792875426880123 -0.3966124809259160 2.6709568196889864 177 119 22
-0.4718001357503700 -0.3635246052998463 2.7146412038139140 67 55 31
0.3877626497785907 0.4974736348553791 2.6137578862845983 6 9 2
-0.4771487769729891 -0.3481055076245516 2.7264914453364937 85 66 36
0.4794143209433159 0.6222517621295157 2.5149211900911945 31 41 33
-0.1898317011511118 -0.1010770799013763 2.9786226837397956 47 57 59
-0.2282437131434028 -0.1273380573580484 2.9321325766765516 47 57 59
-0.4802694146127588 -0.3359846848099881 2.7362962363627958 96 67 33
-0.4763383960872225 -0.3115592742850898 2.7751351361216030 179 113 29
1.6819912353824276 1.9299788635144468 2.7218708077836049 10 12 0
-0.4760065111572460 -0.2863154409583148 2.8138512294421112 215 142 39
-0.4747602903842774 -0.2844637304498137 2.8164668207630728 220 155 27
1.6232587807874350 1.9215986412819936 2.6874582564171576 35 36 30
1.7100620114918028 2.0356673806015158 2.5713320698410831 119 119 111
1.5420667399424073 1.8848763723556734 2.6718126101973314 168 167 163
-0.4844637656725672 -0.2683437380208509 2.8244509882356224 22 20 7
0.2974125282791061 0.5976420439822091 2.6396267269682476 83 84 76
1.5914357744827972 1.9729287692500268 2.6205691834207339 10 12 1
1.4734593311696402 1.8909364939160413 2.5979289597839945 117 117 107
1.6002482818705812 2.0542073297865628 2.4851400964126578 23 25 14
1.4274621358348760 1.8621924369657834 2.6103757108868413 13 15 4
1.3504935689188791 1.8157539043144617 2.3528167176995907 106 82 38
1.3260574366196427 1.7564100414849861 2.6665977853718235 19 20 14
0.2728473815576459 0.6581661520181468 2.7111054783509174 18 24 14
-0.5236191546217140 -0.2129448877339235 2.8331633363556969 21 19 6
-0.5156792243645613 -0.1534092544222421 2.7844866193866054 126 52 3
0.3237768841607477 0.8912793187905311 2.7793442598176168 104 104 96
0.3199989736377264 0.8878153231155808 2.7764357289040129 118 122 107
0.3199989736377264 0.8878153231155808 2.7764357289040129 118 122 107
0.2333405871989775 0.7856676109647652 2.7738267086222925 8 10 5
0.2268813866408630 0.7968652144260489 2.8239853941990680 3 5 0
0.1941669478399664 0.8790238251929319 2.8690585750881983 93 93 83
0.1941669478399664 0.8790238251929319 2.8690585750881983 93 93 83
-0.4812207196583351 0.0519643087383925 2.5973769410897698 184 154 126
0.2243727570404376 1.1886935771306899 2.9157042375968345 98 100 99
0.2170897042301549 1.5052053218339230 2.4878102953372956 152 155 162
-0.0153849532843581 1.5391596454898619 2.2918709703402746 143 152 157
2.0251592516648880 1.4984630993310772 2.7636104225705802 68 51 21
0.5601205494245776 0.3386697744431439 2.7690034658964748 76 86 87
1.7456931118997390 1.4609011687165994 2.2416073431574555 74 59 30
1.5615464042469978 1.3178646529459357 2.2052943169646397 164 131 64
0.6258745683152126 0.4508970999170706 2.7378504369340102 245 253 255
-0.4508769180776839 -0.4252202164202503 2.6463597499379850 205 145 25
2.1324648637951595 1.7701348639493404 2.5646288496650751 60 44 10
0.5021325293032910 0.3264081512366787 2.8951353484859585 179 184 190
1.0543243773333060 0.7064663464202621 3.6034469121192609 103 112 111
0.6306606023499554 0.6012877380997790 2.5689472575401768 225 234 241
0.5771846374742245 0.6160292029676485 2.5328162842737956 238 248 250
0.5629582786760194 0.6061204762844467 2.5277677624742618 225 234 241
0.5477048356084235 0.6113771679944364 2.5424125444212700 245 253 255
0.5881300292479043 0.7703618077522775 2.4918549882619385 106 111 105
1.7907846371934542 1.9498157578090844 2.6669240035897634 125 118 102
0.3212920810307292 0.5310022316076121 2.5868246963960289 104 101 96
1.6346398512406850 1.9331419848497398 2.6565422353127501 124 124 116
1.6351897477143613 1.9318169007617083 2.6568566321087475 140 133 123
1.5298758097253493 1.9134087462162626 2.5559974637074383 136 129 113
1.5394168114546209 1.9701754102636169 2.5190413109121592 99 99 89
1.5107677051761657 1.9374018621454145 2.5633898786068814 15 21 9
1.5107677051761657 1.9374018621454145 2.5633898786068814 15 21 9
0.2676931235312888 0.6859277542111017 2.7123791214851694 87 88 83
-0.2181152455820441 0.1996193450954074 2.5187327713565186 184 162 139
-0.5021370551969134 -0.1623740863316226 2.7759115541148311 222 150 40
-0.5344082592119928 -0.1536012586797033 2.7997676719289650 203 122 4
1.2344371522278061 2.1288839783896134 2.1216842455047829 157 163 153
0.3528636606111994 1.0129255682918985 2.8006565813881763 128 134 134
0.8652749000978943 1.9410106850242719 2.0441074694098726 255 105 97
0.8574083010257094 1.9287080552188534 2.0419572839137001 255 105 97
-0.6010414069882518 0.0851485719009756 2.5217655417886800 191 57 56
0.1477607549927785 1.4261355200737489 2.5080505091647582 33 38 34
-0.6931237841742994 0.3039222455043084 3.4631978524502958 117 126 131
-0.7859415555995541 0.5894670501388841 3.0846392115714591 83 84 76
2.1815762382073576 1.5265122292325033 2.8668404799013665 19 17 4
2.0286434011323013 1.4475358311095385 2.7625414826429759 174 141 100
2.0006401887215701 1.4253847038232152 2.7522230033099424 151 125 88
-0.4419043906474064 -0.4276587371507948 2.6414469467157740 42 21 0
-0.3712115430891201 -0.3572123331964167 2.6453358520770802 188 190 189
1.5667407122620400 1.3876818241416906 2.2969200869968613 115 83 42
0.7303887718391366 0.6075754341577262 2.6186700003309298 240 245 251
2.2066500625900405 1.8406138632026769 3.1206055519946090 126 130 129
0.4997339753215104 0.3789671035166383 3.0881560895550382 144 145 150
0.4118080972662611 0.4016938436431257 2.7269312640973959 47 47 45
-0.2177583462365979 -0.1176600040485637 2.9399694048271434 41 47 45
1.8494179043443311 2.0527963529681394 2.5423012623588157 4 11 3
1.8707373200435136 2.0807192957450185 2.5989752236697217 109 109 99
1.5559745955065420 1.9175880936393721 2.6297412455574221 4 9 2
-0.5006174181887588 -0.2582394432770187 2.8098228681324082 156 109 37
1.3122513062130439 1.8036046522480658 2.6162543645121366 9 11 0
-0.4989166824232011 -0.2428212248723480 2.9158563709128456 228 165 8
-0.2057025210808215 0.1894762801106784 2.5418667108826001 246 255 254
0.2606431194226668 0.7381846412510916 2.7550165798383568 90 93 86
1.2746370712055326 1.9708976210364701 2.4332354874597444 18 20 7
-0.5244955041212216 -0.1757104150573388 2.7780865189657487 219 150 31
-0.5863068506487649 -0.2665384897244109 3.0397843717487696 168 177 182
-0.5852817601768819 -0.2649036793318303 3.0448258598299414 168 177 182
0.8312155792911903 1.8726595479574095 2.1732198818162405 18 15 10
-0.4888481695869373 0.0564246397215132 2.6056124950783861 88 7 3
-0.6022515817290301 -0.0760504368258733 2.7379850968415647 170 17 11
-0.6026153781056003 -0.0770128025467455 2.7373796679429843 166 22 14
0.0009173068393869 0.9301586363379440 3.1231256401798486 37 43 33
0.1085806999309921 1.4061720145397119 2.5150072618004535 104 103 98
-0.5101637093969463 0.4825362836713438 3.2179139760727913 116 124 127
-0.6836723960826084 0.3618957719728650 3.5008176797522124 82 82 70
1.0310411730998943 0.7053705775875920 3.6472149728901284 149 158 167
0.4833208091997185 0.5866444880271200 2.5417705243003863 244 252 255
0.3913786059900821 0.5284541515441372 2.5876474120006328 9 12 3
0.4847394727337999 0.6361230327309032 2.5336296085063803 37 35 23
0.4847394727337999 0.6361230327309032 2.5336296085063803 37 35 23
1.5932682221313921 1.8720106110400021 2.4432357565345280 83 79 68
1.8403783240667946 2.1073050857561850 2.5081542179291336 95 88 82
1.3617964783368852 1.9593282502300162 2.3768009547875359 138 95 27
-0.4632099252374438 -0.1568524301488051 2.8003112134217920 29 20 5
1.2820869546206273 1.9839611815244895 2.3536299273727628 103 83 56
-0.5360282697508033 -0.2104056845041855 2.8958565697467962 83 14 7
1.0169265095558697 1.9750184776685646 2.1805180699276674 133 140 132
0.2465458738357952 1.2012659815587481 2.8786431321457533 125 127 126
0.4899680865628235 0.3248196726433939 2.7810849413449970 228 235 241
1.7031339888511263 1.4398518827255848 2.2828721824163249 1 6 2
0.6947241251465471 0.5500862665027973 2.6598978262722937 244 252 255
1.9919694119416025 1.7891238056863794 3.0707764014267180 174 173 169
1.6109100798525642 1.9571997763113578 2.4971705557183586 6 9 2
-0.5348898210529967 -0.2103388296570568 2.8526280703744993 192 132 18
-0.5349129939717957 -0.2098897180152511 2.8533971657134933 192 132 18
0.9567918036294309 2.0043190995605942 2.2474232192013242 156 161 154
0.8363761337640536 1.9691948293082617 2.2276578373754909 37 38 24
0.8363761337640536 1.9691948293082617 2.2276578373754909 37 38 24
0.8040886105752603 2.0524121867580045 2.1911857468666480 136 146 148
0.1574164113929953 1.4638558394657213 2.4522772080758437 6 17 19
-0.6501302840371603 0.2524842494428212 3.4678270879563389 175 182 188
2.1776501804661716 1.6829426021646168 2.7841892667193715 79 59 26
2.1838363507135843 1.7141351352206355 2.9350588294453539 114 90 56
0.5062705560447555 0.3434299431683943 2.8607125080973512 41 47 43
0.4309757825899600 0.3699712520505826 2.8094111426167490 57 66 71
-0.4468442344749374 -0.3622397941209267 2.6580929319600388 165 100 6
0.4358493969790678 0.4811638182720119 2.5602488206849046 23 17 3
0.3801364011440524 0.4416979651510995 2.5490479650083446 30 35 28
1.9578022118843748 2.1331474567890338 2.6467884631768470 110 110 98
1.9701548680575194 2.1452451695498960 2.6465237423571768 121 117 106
-0.0386217856015709 -0.0751425657780341 4.6120590045892857 226 234 237
1.3573374721688127 1.9137723824224693 2.5947518849800821 158 160 159
-0.5259462779057882 -0.1273587111431770 2.7924417387215414 15 4 0
1.1544167414218560 2.1724579610137420 2.0337822706250379 141 148 140
0.6171247926180897 0.4187231677475142 2.7680266550683292 51 59 62
0.5037027916608527 0.3780100599017037 2.9452785804707595 188 192 195
1.5063727515643570 1.8875712227330639 2.3223715458312411 134 92 18
1.3130640868774190 1.8111400149353081 2.6646450912594455 31 33 22
1.3130640868774190 1.8111400149353081 2.6646450912594455 31 33 22
1.1790396132169287 2.0498349477194768 2.1582078646278138 114 125 109
0.1201844535068903 1.4101101944923178 2.5847996854844224 18 23 16
-0.3123308911638105 0.7258961281936743 2.9552186057051890 92 93 97
-0.7650224216152520 0.5203946715794671 3.0588922800114133 135 143 145
2.3387478311305507 1.8008315952703162 3.1090075176168521 21 22 8
-0.2546219436802238 -0.1257727014543636 2.8473068259449854 88 98 100
1.5243538393042995 1.8348798686171295 2.7260628847496280 166 166 164
1.5487337360045905 1.9504553265537334 2.4438655432611283 7 7 0
1.5251383572639277 1.9252429911466056 2.4391836174285713 27 19 0
-0.3000510129464872 0.1790478022466459 2.5242242008666782 13 19 15
-0.3738410522531646 0.8285785479372806 3.0578945442858485 81 79 67
2.1378588493315194 1.6418818493416165 2.7007768875475482 119 89 51
0.6200959977074045 0.4901122808861418 2.6589602071910527 227 237 246
-0.4508990782623331 -0.3981506418002542 2.6471392483841307 199 135 27
-0.4535206702015940 -0.3210773736712678 2.6918862472657517 19 16 7
0.4749863897865406 0.8955385882094514 2.7145356710049899 165 169 170
-0.3536194783315210 -0.2327126296672040 3.0766842289115544 180 61 63
0.1090172256965424 1.1707075798559023 2.7802147626568861 178 183 189
1.1026202546528479 0.8282058829920906 2.8235006506988647 199 204 208
-0.6307408755568926 0.5419544655691202 3.4455847865716467 143 151 154
0.8438475866921822 2.0361495845281943 2.0863815747181533 7 9 4
-0.1436729855056545 1.0796944215803985 2.6695546057225270 12 13 8
0.1222119483928066 1.5996519817764066 2.4784350512021849 7 14 6
0.1314120744708941 1.6186717100050574 2.4819193655439569 7 14 6
0.4385783552154898 0.5453939570104692 2.7670307135378232 11 21 13
0.4385783552154898 0.5453939570104692 2.7670307135378232 11 21 13
1.5496875534313488 1.6279604767137530 2.4469785865698639 58 44 15
-0.3757658893227208 -0.5068491077365583 2.6620581128252390 31 39 28
-0.3775786755409991 -0.5077535599188540 2.6606563441476974 31 39 28
-0.3509282778266378 -0.4739732499905892 2.6494570420032324 158 166 168
-0.3614902367468317 -0.4795557746096547 2.6371569419441485 169 177 179
-0.3720253054342688 -0.4468813958485220 2.5906523514555952 240 246 246
-0.3988429023951613 -0.4917596491558295 2.6613354299353480 159 168 165
-0.3994353200133899 -0.4918958122811574 2.6610295946375806 159 168 165
-0.4878103817353895 -0.3173392312713810 2.7516483468977659 151 93 29
0.9719593312838820 2.1766637815694692 1.5709906064516681 51 57 47
0.4200046304788954 1.1354594916758529 2.8617752171492095 101 107 103
-0.3634091927929666 0.2186300922231144 3.8761501019152238 138 161 169
-0.4623613436349375 0.0763803163795025 3.6174128675859438 138 161 169
-0.6840950545180745 -0.1636845440233581 2.8023473981197826 155 67 57
-0.0139628122398368 1.3519305165448072 2.5313609152361529 42 45 36
-0.1769148030966514 1.1416258010875611 2.7331565759097018 57 64 56
-0.1769148030966514 1.1416258010875611 2.7331565759097018 54 61 54
-0.3594354662968148 0.7941072241726415 3.0571619530908221 113 107 95
-0.6231833071221129 0.2551190456379090 3.3675329277205837 169 186 196
-0.6577238643327284 0.2872117687763924 3.4764737559827199 169 179 180
-0.3888084748150069 -0.4726582234835418 2.6110878799538253 76 76 76
-0.3926663137222814 -0.4745590798461389 2.6069978761371742 113 112 110
0.6293518855394248 0.5297584510153434 2.6753157543965655 216 223 231
0.5891706705984108 0.5746618609489413 2.5842575018556344 210 217 225
1.0184644163738399 0.6812396197099251 3.5910691509705965 96 103 109
1.7666136375246166 1.8582547179651998 2.7613095643547361 34 40 30
1.7666136375246166 1.8582547179651998 2.7613095643547361 34 40 30
1.6011415420789616 2.0166884850035354 2.4987431426433675 62 62 50
1.4148629518275531 1.9313815468380799 2.3884376874190139 105 90 61
0.5354640437380610 0.8431345754139491 2.9639757665610529 26 19 13
1.2857455762141461 1.9374072191238534 2.4367002343062025 118 118 108
0.6211006901849108 1.3272740604066660 2.8909189787589287 81 85 84
-0.5156933838546205 -0.2272539691723394 2.8613065862609441 34 16 4
0.8400460871917000 1.9202586069007845 2.0555232390444993 36 3 0
0.3149810668188637 1.1052612940226285 2.8505100008273780 16 22 10
0.2894844829688418 1.2017786335925478 2.9005278911898587 14 15 7
-0.5087748130410255 0.4700373669981519 3.1306426961959883 238 238 238
-0.6516175881118893 0.2774845119512322 3.4748354731600037 92 97 91
-0.2547211008180905 1.2294839447665720 2.6449634564163165 123 128 134
-0.2878837986566967 1.1723560393236292 2.6780084981866832 127 129 128
-0.2878837986566967 1.1723560393236292 2.6780084981866832 127 129 128
1.0018492971148931 0.0328934433582530 4.7614941426971393 183 180 175
-0.3989743728550059 -0.4672877580111528 2.6001805747078635 47 50 41
-0.3860393325995559 -0.4601371836741205 2.6354139896805560 79 90 86
0.6919266111408633 0.6285973254319674 2.5833062342808564 200 204 213
1.7161619583238636 1.9613610755205910 2.6371887561629226 126 120 106
1.5271187706062210 1.9583771732147537 2.4406942449731566 94 74 47
0.1532274608468698 0.4249065430824224 2.7203293346635915 28 29 21
0.5036196393344342 0.9094999170410517 2.8057198570307085 146 152 152
1.2729842693609243 1.9886506512904707 2.4046432947857763 138 135 116
0.2357787463343902 0.7785338778715489 2.8045902830465619 25 26 18
1.0220730050415650 2.0157989481333454 2.0421833064272055 137 148 140
-0.5168923146257870 -0.1684258630938824 2.7735361522611504 229 161 52
-0.5159320276446452 -0.1661311704533895 2.7772001453757156 229 161 52
-0.3741806619260492 -0.4618820436855631 2.5927285113636196 184 189 185
1.0255859731420556 0.0279548192705028 4.8195738853097785 105 113 115
-0.3913812655473453 -0.4947356507496531 2.6679756430574688 17 27 16
1.0313694896214844 0.0664596871498308 4.7729068553295484 116 113 106
1.0185369100656947 0.0614386649714205 4.7557214169505571 116 113 106
0.6576385650700607 0.5729132277012969 2.6426449888138031 73 78 81
0.4504918418259125 0.5449708557286240 2.5526864584880218 54 59 62
0.4529304585172024 0.5470553396755934 2.5537529794557137 54 59 62
-0.4646166407023821 -0.3424071766989250 2.7524760625130584 128 89 56
0.9649847254543793 1.6766977450379175 2.6628590558323739 100 102 101
0.9726098077515638 1.8787565819992105 2.1379620410760860 114 127 118
0.9732992237959774 1.9891422690884768 2.2001316463831206 117 122 118
1.0438923800669386 2.2483495857628992 1.6297062904501509 12 7 3
1.1527828805663778 2.5275942790538828 1.6982655130870170 92 98 96
-0.5435171951903889 -0.1876302255683856 2.8117486313503433 177 109 8
0.6710065821706344 2.1788605462344348 1.7434510223305326 98 111 119
-0.6609097279666314 0.2209066528953088 3.4068296581758379 167 177 179
-0.3666912422308615 -0.4564356585665953 2.5890493007342075 33 43 35
0.9597620219530264 -0.0068297507412481 4.7911328093323631 42 47 41
0.8812945408122600 -0.0560101182814068 4.8524537197108186 48 54 54
0.8812945408122600 -0.0560101182814068 4.8524537197108186 48 54 54
0.6605162715370363 0.6390072641934832 2.6362514084345139 33 38 31
-0.4129217188069493 -0.3906466742477524 2.6119655299856359 142 95 27
1.4938438625843895 1.7049427829737618 2.3837997224483893 93 60 6
0.5522530669977197 2.1627597831356709 1.6822093293637777 96 113 120
-0.6179332246535783 0.2190622310848334 3.3558980156501854 178 181 186
0.8648265949213405 -0.0906246010005906 4.9016973739677576 65 69 68
0.8669462111157011 -0.0262241092506728 4.7319381823862994 158 169 171
0.7200239912492045 0.6083067976250076 2.6166128166440390 221 228 234
0.4896411633941985 0.3254540138247091 2.8979601031044737 169 176 184
2.1287015332897634 2.0130884765478534 2.4783977470006002 85 69 44
1.4351462687058341 1.8163898811608243 1.6884644137943035 80 82 71
1.7518030542387348 1.9549151074717330 2.6791853117265867 15 15 5
-0.4743655953686440 -0.4035424314638116 2.6810542370233921 21 23 10
1.2117025125759040 1.8049748701503177 2.6729617168836377 164 168 169
0.5050938293948765 0.8958312995281890 2.8924777742097181 27 32 26
1.3084838964085688 2.3625664169812817 1.7947735788575774 8 17 14
-0.4703630423630608 0.0382470191611504 2.6161031932800407 241 248 254
0.6652335093836770 2.2637387249248668 1.7099652282748876 89 107 111
1.0229369664130656 0.0202476667628334 4.7554334353922449 211 211 209
0.5463000752108111 0.3337647734560645 2.8107815848959552 104 113 118
1.0528286652791525 0.7348575257714846 3.5626875854790114 141 146 149
0.4990750472744612 0.4253979066877270 2.9470295368550872 47 56 55
1.8760515434125651 1.9403833648197577 2.7446930858014729 140 133 125
0.5150445654561256 0.6321961941500308 2.4973459944151415 228 237 244
0.4281441962791191 0.6385821534489041 2.5335164026025665 165 171 169
1.4580512295046337 2.4665603991269038 1.8044569952621188 74 79 73
1.3112436818644548 2.4837171329399594 1.7609814191800028 91 101 100
1.3112436818644548 2.4837171329399594 1.7609814191800028 91 101 100
1.1829021013358942 2.4839888018207024 1.6867073322257393 5 10 3
0.7172849117962027 2.3644751476425387 1.6571755593800888 4 10 0
-0.3845569307937557 -0.4982821871945504 2.6583568481764672 22 25 16
-0.3212386009489238 -0.4585574793807737 2.6921345200736071 3 8 2
1.6960895024360478 2.0485191683176924 2.5953357510850155 46 53 45
-0.4190181027206364 -0.1572197516075152 2.8085916172260452 161 63 60
-0.5014902297771009 -0.2480783076631168 2.8508044303293283 30 31 25
-0.5183732150810002 -0.2283934997935651 2.8813913559907132 193 122 6
-0.5504259221500820 -0.1815911933771460 2.8693834144173218 54 7 0
0.7405074016405643 2.1015046926975258 1.9330497628950667 103 112 107
0.4696130751762861 0.4037864673871718 2.8323408606735607 48 56 58
-0.2565530971126362 -0.0936005207966657 2.9256418721381419 229 238 247
-0.4700067838563061 -0.2161367791717163 2.9454377414062538 192 120 0
-0.4898203247030278 -0.1407014916823111 2.7858071701885736 205 136 33
-0.5455557474715444 -0.2423091124259653 2.9807045671566317 87 28 24
-0.5478091176061477 -0.1721570882192658 2.8233835844710331 211 133 7
-0.5484634226115130 -0.1725707898634085 2.8215557173835566 211 133 7
0.8110304950478692 2.0606489183865322 1.9431900248067799 3 5 2
0.8110304950478692 2.0606489183865322 1.9431900248067799 3 5 2
-0.1846467499821344 -0.0661343092918849 2.9235110996317926 88 98 100
-0.2093474061501781 -0.2742536072878797 2.7732520171280517 177 184 190
1.1339083124676936 0.8826098971163254 2.8560176889259048 233 240 246
-0.3902469822591654 -0.4435170320105218 2.6480187442312464 10 16 12
-0.4840749998155056 -0.2270119571698572 2.7724491368850943 14 10 1
-0.1680254101694359 0.9903489711276997 2.9316041204372425 155 164 169
-0.4241802211416669 -0.1348560883233729 2.9743228843011318 21 23 18
0.6502619809961366 2.1763828811493928 1.7251215782149720 84 97 103
-0.5297659624957000 -0.2057882511423362 2.8867965031329970 142 121 102
-0.4104935230371005 -0.4898013108816806 2.6088057322895057 34 38 47
0.4339917717426070 0.4760310021746109 2.5364730632699901 200 208 211
-0.4206734555748348 -0.4845302041842184 2.5827169565835910 42 46 47
-0.4781113029855623 -0.3249868220219357 2.7634973774409137 71 37 0
-0.4777001015040922 -0.3171274251749977 2.7557954715284918 76 44 6
-0.4885700125544726 -0.3076133106387695 2.7595017453638846 152 99 29
-0.4922748421561463 -0.2986616205094212 2.7432308539299504 93 48 0
-0.4924966533080374 -0.3007894325284565 2.7571914688495087 75 26 0
-0.4924966533080374 -0.3007894325284565 2.7571914688495087 75 26 0
0.8343705950816136 2.2993828035126493 1.6100788172785054 45 50 43
0.7111175170241711 2.2595531993731881 1.6433798228538747 56 65 64
0.7508079635259406 2.3334567746547936 1.6343067551837447 56 65 64
-0.5269698295124746 -0.1552046814857075 2.7951142368721249 122 51 0
-0.5511964795805344 -0.2504701411996211 2.9498154785618254 70 20 13
1.5824747454992885 1.7163374754894141 2.6730995688859251 105 104 99
-0.4077151292286914 -0.4617738593179516 2.5728831347685017 168 172 173
1.2918153219881390 1.7385423216844342 2.4049993240376719 78 67 39
1.4171078167343842 1.9045350897601354 2.4419610381516081 31 31 21
-0.4748929835182148 -0.3750517420093213 2.7110591246491098 62 39 7
-0.4687459364374708 -0.3604067011530626 2.7370267767568457 52 35 5
0.9762713754370110 2.2777177808425884 1.4453073007805979 56 64 51
0.8624519933758209 2.2971929073110964 1.6310281683342296 98 105 98
-0.3992213823252252 -0.4853941252718505 2.6092657591180899 218 216 217
-0.4082810630921492 -0.4828463695111954 2.5895715701301998 220 221 216
-0.2906491502790785 -0.1864032866797133 2.9732603451045332 207 136 142
0.9496574087730454 2.1644534062095193 1.5997302014228683 8 11 4
-0.3359550608926412 0.1328586962751968 2.5441951973396915 185 159 132
-0.5557450522940640 -0.1777289186448594 2.8215739192794800 211 160 68
-0.5031767187659204 0.5067472526225166 3.1926029886895462 60 66 62
-0.4198789305495057 -0.4655257788449202 2.5765801098705361 11 17 13
1.4031360438984739 1.7726506873918240 2.5337552204886045 116 109 103
-0.4256249198100694 -0.4556813877173814 2.6708078589464086 31 29 17
1.4125802954398825 2.1347006749242241 1.8563175650867183 23 33 24
0.2744422041541433 0.4846577398837735 2.5731621950687322 81 84 77
1.3265847029042468 2.6052481795986857 1.6723874617403462 84 91 84
1.0158974551785640 2.1934369554974649 1.5720398205734791 3 8 1
0.8440054870040952 2.1229049530050319 2.1372464743610857 7 14 6
-0.5705163416300367 -0.1601141883306185 2.8316454591550770 16 3 0
-0.6196078780997585 0.2118312427474578 3.3756653637465752 108 116 127
0.3137069307895884 0.4320766219246751 2.8427845799252789 99 99 91
-0.4432952059806480 -0.4137951233807354 2.6336673609612369 206 137 8
1.1090291599063786 2.0360473233476761 2.0871386148581670 145 151 147
-0.2191876370722170 -0.1327692860134737 2.9882573226797837 180 154 131
-0.4946154241014074 -0.4149326255933793 2.6821987682870017 130 89 23
1.0611855208836669 2.4006570919076520 1.6378111505653854 5 11 1
0.8462686807554242 2.3477671795951918 1.2317390391700518 2 7 0
-0.4957520411337268 -0.2528250584115619 2.8960821713899687 166 95 5
0.3415684556407794 0.5608641825343798 2.5226920408341940 167 167 167
0.9198808393883618 1.7100854386071100 1.4428004421120562 4 12 1
-0.4688466638210251 -0.4221849583925904 2.6956524996969682 50 51 33
1.2276359256363132 2.0752153764383352 2.1666400774020702 140 153 146
1.2150432737377321 2.4101893541878940 1.5424009959318783 53 55 44
1.2150432737377321 2.4101893541878940 1.5424009959318783 53 55 44
0.4815761664363408 0.3418786915315148 2.9036701855021980 178 182 185
-0.4119534417661500 -0.4865370442851759 2.5967358369357982 227 227 225
0.3328112827643235 0.4342999814310121 2.5022823038936863 230 237 245
1.4049752186511184 2.0155156905861742 1.8107618446621458 5 8 1
1.1899048299422110 2.3139929884790944 1.5043280795365375 3 5 2
-0.5174975951668264 -0.1640148013431943 2.7781177894100733 201 129 21
1.0360197142872596 1.7424916809551008 1.3119429588179896 10 13 4
1.2547814949342815 2.3698734427624926 1.6138926384541576 3 5 0
1.0216032071140670 1.9196722081612969 1.3666982362526372 4 6 1
1.2889332896704677 2.3357981394395790 1.5691058865463765 4 5 0
-0.0828634150344939 0.3096276311409530 2.5645858585765100 96 11 6
0.9184702008655042 2.4521611325684214 1.7222837305957988 5 8 1
0.3456361236519730 2.4786373350194317 1.4310363546978886 1 6 0
-0.4677837568204664 0.4956253744991540 3.1785344231726378 61 60 58
0.2577752295839386 0.2545957408436207 2.8136427608750934 7 9 4
1.1146099803574585 2.3949856552794526 1.8227529226030392 106 115 110
0.6385382825947142 2.4269861181982431 1.5217689474473917 3 5 2
1.1191441918777216 1.4371731361985052 2.4078213790200156 8 8 0
0.5288794134515707 1.3379882709952724 2.5302739161666614 171 172 174
-0.7921527361628655 0.5833025451342945 3.0619176540688717 135 139 138
-0.4688892957288667 -0.2696396965970154 2.8395972474464308 214 158 47
-0.4883400349598899 -0.1170966251072723 2.7904370900358106 155 78 22
-0.2096041773749827 1.1395430795984385 2.7963991649568438 47 57 56
-0.3592852785624394 0.5228767508873837 3.5198064533833380 223 230 238
-0.3694395802183640 0.5297477459950216 3.4678054286239060 206 215 222
-0.8536329242674041 0.7674946973184281 2.8706629655931084 111 115 116
-0.8474442020914106 0.7983151523653274 2.8836914224622738 128 138 140
1.6536341076421175 1.9355855458099893 2.6292701687146911 30 32 21
0.0091348387667149 1.1383259492807374 2.7988639835906692 30 32 29
-0.3883196841070471 0.5667661832571340 3.3261173201360421 201 105 107
-0.4606801437491806 0.4477448616528749 3.1183866662263475 52 53 47
-0.9035271274423200 0.8129965698895161 2.7889968255924988 126 134 137
-0.9035271274423200 0.8129965698895161 2.7889968255924988 126 134 137
-0.2122920239463543 -0.1307574300418990 3.0383159376085023 79 13 0
-0.2582446652471477 -0.1738001266534538 2.9955919612840245 79 13 0
-0.1399850971926947 0.2653466470715299 2.5103353912898534 172 166 168
-0.5153720543794943 -0.2404146597434405 2.9395038880107758 160 72 70
0.5406369761100783 0.6569749886744352 2.5013775312463604 222 229 237
-0.4590598551347156 -0.3555902066325585 2.7462145242432183 92 73 40
0.8524905082425438 1.9318461179773703 2.0018367585292576 10 6 3
-0.4749089427420913 -0.2869686367990951 2.8134592251022021 205 141 67
-0.4819075317908770 -0.2694781370298654 2.8459363710178827 239 178 51
-0.8306442075774332 0.6436701951036189 3.0821763006123031 71 71 63
-0.2250219887027085 -0.1191978688207400 2.9869601389045095 233 242 249
-0.5202031746772511 -0.1202374517528249 2.7999729573102923 32 1 0
-0.6291182735320895 0.2667562190933653 3.4713020670575783 167 174 180
-0.6735704770516910 0.2960971742530788 3.4222936230753831 68 79 73
-0.4800099027279153 -0.1698777132491676 2.7876170946103023 21 21 19
-0.4021919355987475 0.4791484509499980 3.2815269808417273 180 189 196
-0.6333789945534769 0.4543953814958180 3.4965327831294943 150 155 158
-0.4722929989252513 -0.2083607905153247 2.7989662413367133 14 14 6
0.5454899428863137 0.3355577021595680 2.8104004902429351 71 80 87
0.5447832721936405 0.3352358796483657 2.8223838274387618 88 98 108
-0.4834036199463503 -0.2714425422689355 2.8361706019484676 217 168 63
0.0450005366059561 1.3538803545905498 2.5473728288953597 42 47 41
0.5626358765169182 0.7078904147203863 2.5025424854644216 134 138 141
-0.5143225230018764 -0.2339250772087300 2.8663925238588090 167 115 29
0.2986991666887604 0.5994028180289551 2.6413709106759069 83 84 76
-0.4316971803701337 -0.4494246537341020 2.6767223257270047 174 114 28
-0.4519733767202865 0.4268677559162904 3.1158315401291752 66 72 70
-0.5030888405838048 -0.2200614096454170 2.9660314019404028 163 58 54
2.2682452479041357 2.2806996884160275 2.5165012980185972 3 6 0
2.0326467152841250 2.0565401391261413 2.4882496798334532 21 12 0
-0.3179476752334510 -0.1083447291271599 2.8977809293284951 88 18 10
-0.4932371022951662 -0.1372576086499986 2.7821844891330771 206 133 30
-0.5013242108162381 -0.2444327093191781 2.8771166489957465 148 95 25
0.5059896332951890 0.3241524294105957 2.8941793561337383 180 185 189
1.5488555794013479 1.9802333765464259 2.5235297135325983 99 99 89
0.9388341650063345 0.3707784046933007 4.3283391251622945 174 165 158
0.9432111189056918 0.3707388418984450 4.3328888801388707 174 165 158
-0.2045491500202682 0.2069538298639041 2.5035084839235413 166 166 164
-0.2146369317899140 0.2031052761125612 2.5207155592825581 184 162 139
-0.6552955510154514 0.2655104492531460 3.3832205655644780 124 128 129
-0.0944271881386695 1.1796994166330801 2.9304093290012099 163 167 170
-0.7845588474613426 0.6146827138890303 3.0473867031393400 75 79 78
0.0647930109042283 1.4525109630974702 2.4490354226559923 37 44 36
-0.2273515836511177 1.2876824302321828 2.5809012466015080 131 130 125
-0.4689289740908960 -0.3135959306802443 2.7747320691077975 98 56 14
0.0989223018601348 1.4354361649242704 2.5012290743516532 16 21 14
1.6973292706693175 1.9453250138262288 2.6952236165796828 116 116 108
1.0007015140508972 0.6879533946882900 3.6152882876641845 153 162 169
-0.4753365094027515 -0.4041702408266681 2.6822837691347656 40 42 28
-0.4785953934627414 0.4659943777554214 3.1292971920983965 72 73 68
2.2981851864487948 1.6240535756015289 2.4123928486899726 16 14 0
2.2981851864487948 1.6240535756015289 2.4123928486899726 16 14 0
0.1098115295284145 -0.1990802938261357 4.6393368219716571 143 162 177
1.7413827517264064 1.8705896370185657 2.7511011808374719 136 129 119
1.6594359251941644 1.9616341221072671 2.6292570248643354 105 102 93
1.6473638098233647 1.9526945659765309 2.6250663214802179 105 102 93
1.5513050580940921 1.9522717802395948 2.5257338042110633 94 95 89
1.1959893415238931 2.1448062282265101 2.1330392720276481 92 98 84
1.2367188905734785 2.2771733102414284 2.0111237409447651 126 129 108
1.1804082536726612 2.2610494627584248 2.0168644320001392 131 142 134
0.0182417505538386 1.1731039073273355 2.7692434807286701 48 54 50
-0.0744779481670709 1.1637333368323268 2.7621458412453377 43 49 45
-0.0953907293397933 1.1239070306003205 2.7726996926858756 51 54 45
2.8682267675072426 1.7931280418848510 3.4801870079385004 182 186 187
0.6812721536061360 0.5335427215598624 2.6893518118145252 245 250 254
1.8010416894668579 2.0646021953426845 2.5335079938288412 9 11 0
1.2332647285443756 2.1538897410716711 2.1401858304699575 73 81 70
1.1639861338540718 2.0752644909004054 2.2137506355648093 147 160 151
-0.1668701530997463 -0.1541198216505605 4.3982327542588857 34 45 41
-0.0664467996942724 -0.2415655401486686 4.3800187949859932 159 167 170
2.0560105143178218 1.4539743998029677 2.7193978428307228 56 39 9
1.9694334806495524 1.4036703304422269 2.9673913775986684 135 109 82
-0.4662206968408212 -0.4143233922577194 2.6804125874324853 192 130 27
0.2440578608543192 0.7656860750658337 2.7777891317176371 91 93 88
2.1452027850827520 1.4513644799030962 2.7331663499498671 196 158 96
-0.5155443355813265 -0.2246536472605327 2.8510723287946553 28 24 13
-0.0261496853473940 -0.3074736524003276 4.3276337261642324 29 31 28
2.5196809141363845 1.7258181918762916 3.2523304278347194 186 195 192
2.3046929341215945 1.5645184184515355 2.4856758479798509 144 147 128
3.0254000216876826 1.8971684048343611 3.4545187618501298 143 143 143
2.2834194171692634 1.5954598524067380 2.4149587736201816 113 107 91
0.5703730953786134 0.8593674115305372 2.9036777917339749 6 9 2
1.5801549351553741 2.0326494770203940 2.5601764088135459 30 32 18
-0.5693450094035684 -0.2748405987562949 3.0188217011731839 56 61 67
2.8747694830576522 1.7131336575080787 3.5225391780240449 158 159 151
0.4646823655508976 0.5532479611221368 2.5671429747338284 82 86 89
0.6176076189608773 0.8629653786962689 2.9490592904045716 6 8 5
3.0985501702695597 1.9019637231578577 3.4631390785636982 36 39 32
2.3305837299139478 1.5662923257586709 2.5331643398918495 14 7 0
2.3305837299139478 1.5662923257586709 2.5331643398918495 14 7 0
-0.0591599827608599 0.2872210830643154 2.5436984755141308 22 28 24
-0.3500727367740046 0.1536049268936530 2.5544883220993246 199 89 88
1.7856522496223171 1.9871337492151588 2.6938564296742280 15 17 3
2.2376042418814341 1.4607822635047798 2.8866016693277801 73 58 37
2.7128499878509387 1.7876769638113230 3.2698888102284771 168 166 167
1.5889489754680786 1.2039776993946412 2.2479647017794191 162 126 64
0.4483944382358992 0.3324950342945401 2.7811076268948773 4 7 0
-0.1314249178048382 -0.1263440047798340 4.4377705902133950 162 175 184
0.4273478470677706 0.3668942938026168 2.8048524182887880 61 66 69
0.1607107118517171 -0.2136534887289468 4.7248167967044168 144 157 174
0.1607107118517171 -0.2136534887289468 4.7248167967044168 144 157 174
1.7666873191902541 1.3606733094911085 2.3334694536443452 167 133 72
-0.4154792126374128 0.4090378184313754 3.1321016925185425 87 21 9
1.7852795507104904 1.2584129472380339 2.2530589623904231 18 12 0
-0.6021584367149775 -0.2323825448881270 2.9922144373939163 193 202 209
1.9854816960292192 1.5921145696858352 2.8517092701429410 117 90 60
2.4738728143212270 1.5650839241148875 2.4446026583415144 110 87 37
2.4738728143212270 1.5650839241148875 2.4446026583415144 110 87 37
3.1738719568730716 1.8876138904912763 3.5335595053190287 91 96 99
-0.2880269133491440 -0.2482841567425700 3.1285584155483934 192 186 186
0.1098115295284145 -0.1990802938261357 4.6393368219716571 140 157 175
0.1036637943097533 -0.0677120483940033 4.4825217768790298 146 156 158
-0.0718737138711511 -0.1955231308456889 4.3881115128656978 155 169 178
0.3520180006631686 0.7706243142521459 2.9191515439902118 14 14 4
0.2790035245048627 0.7596495567946268 2.9509426693962628 188 190 150
0.4807942139038741 1.1911952516455784 2.8338328671979611 48 50 47
1.0929963475356828 2.0709402827845049 2.2352271902413161 79 89 90
2.9681151463746134 1.6103509331559036 3.6617086575172455 91 92 84
1.7698410607800112 1.1606070730283020 2.2324176374831137 28 23 3
2.3685190399981115 1.4576542207536385 2.7706431392920403 173 164 149
2.3608456875226911 1.5624050588286567 2.5555342277709046 154 123 58
2.3788335348441350 1.6213847123572340 2.5184867287960229 15 10 0
2.3396416316303692 1.7338885242086801 2.2967410338842553 49 29 4
-0.1235808500944551 -0.4137066382287667 4.5231903877464230 43 58 51
-0.1013908935433804 -0.3137992172007304 4.3867308634130540 141 156 151
0.4690781441966843 0.5399029937948092 2.5590653585702614 232 241 250
0.2915579133896253 0.7537862627975043 2.9602279163930305 19 25 15
1.1450639240509035 2.0972598104008844 2.2369737873873561 86 92 88
-0.3813300404060297 0.4441937551090320 3.1372316757478793 138 138 138
-0.3066894172656573 0.6814562121470186 2.9326303032821075 84 91 99
3.1321243241593799 1.7914588607365491 3.3070297490495797 127 117 105
2.3816539683981399 1.6179951483723816 2.4212800427844963 101 101 91
2.3862997073033747 1.7616909006755372 2.2843524182428538 143 110 57
2.4292821069861859 1.7904601572169008 2.2939198098682612 136 107 51
-0.1001559107736463 -0.3171663869577968 4.3220049379360388 85 97 93
2.1780789221756010 1.8224731661289750 3.0547812302794060 94 90 78
-0.4869733087478115 -0.2867146719988110 2.7903558059863407 88 41 0
-0.1653522145034665 -0.1297484054319058 4.4644551458079968 152 163 167
2.6474839676255564 1.5866652614521903 2.6313626868666438 17 9 0
2.8928139439915368 1.6557881662915617 3.1279452275278072 97 86 66
1.1441123308264611 0.4386084427637932 3.4434863098737574 141 150 157
2.3885429517674583 1.4421797640883240 2.7444092184768683 46 26 0
2.3758524765506071 1.4287232518859094 2.7378839022982469 34 22 0
2.4445606174591537 1.5544127343700740 2.6064258614496003 41 45 44
2.6227404382448647 1.7629502959526577 2.2452944264289885 54 36 0
2.4860209022655755 1.5828879277384740 2.6464326768317687 221 219 204
1.4967580089425678 0.8641519416949397 3.8176760967551595 33 39 35
0.6816834075065809 0.6636776930032440 2.5655787592697741 97 96 92
0.6058576895090323 0.8875606679328391 2.9492689222289945 143 149 147
0.2367929783146589 0.8238324445286268 2.8060895790666751 3 2 0
-0.3329798234698644 0.7435340289599931 2.9742965247140942 66 74 76
2.9359308907144261 1.4795162468726704 3.9057776945474707 138 132 120
3.1901370511800384 1.7916799454453238 3.3768750716866633 204 195 186
2.5820601598997213 1.5560042689642644 3.0776329107554772 76 68 47
2.2634464684918552 1.4907828399019352 2.8195455607777826 37 31 7
-0.4698393610267763 -0.3628523510724039 2.7186546441786863 94 74 41
-0.2195108894680339 -0.2797573074858990 4.4429158892964677 38 47 44
0.5934079058549269 0.7751878646378221 2.4948988721086973 111 108 103
-0.2164614132064147 -0.1434642637183829 4.4225894315679604 171 175 178
0.4580108346052403 0.9027658228783141 2.8427163359427405 16 17 11
1.8949559601788271 1.2424444515229960 2.2817537502123391 155 121 58
0.4544752916344118 0.3096294261493202 2.8802078164143086 180 184 187
-0.2098291517157947 -0.1728942125360091 4.4114750200329427 28 40 28
-0.0763851291617657 -0.3544693926549489 4.2780136673923987 152 171 178
3.0323379910855794 1.6754334197511647 3.5907783837147726 187 186 181
2.4879783715511423 1.5461953563733388 2.5656886225886870 231 233 232
2.4359288520851998 1.6153712603615928 2.4756801188028854 165 176 172
2.1364513594262471 1.4465902085936821 2.7300756695157715 196 158 96
1.6704652799263420 1.4164884419177355 2.2758371558112787 1 6 2
-0.5044939861568786 -0.2393783108656326 2.8946153368273793 227 155 17
-0.3872189156728232 -0.3627939060244865 2.6665026151886750 140 86 12
1.1259581742800822 0.6720827401885496 3.4672297880514180 164 167 172
0.3557620538158416 0.3940931286974171 2.8727798181966464 11 18 11
-0.2404559283912348 -0.2719214369940679 4.5521993929796949 173 185 185
-0.4799895661119803 0.4664596739043529 3.1294147090711610 69 74 70
1.1600023381001434 0.6075214094977547 3.5316853712874083 115 125 126
2.2445364118129052 1.7537408155919412 2.2226491163715743 14 7 0
-0.1741064664804566 -0.3567600754804799 4.4144080851698453 181 191 192
-0.2969747652100911 -0.1648413278201287 4.3815526123976252 180 189 188
2.3017407185888930 1.5367756778768757 2.6998541172662240 174 145 77
2.1091255822770778 1.4611560183392849 2.5090090287637015 163 133 73
1.8399534142016933 1.8512385490284820 2.5287920225168397 81 57 21
1.0117014814606142 -0.9969683437002288 6.1574772568662501 124 130 130
2.3714528336564298 -0.1698900647725505 5.1131224884983517 119 124 118
-0.1197827921820128 -0.8217674149343067 4.9078130961337871 156 166 168
2.3981170449031914 0.0847970849269680 5.0880131772207271 84 89 83
1.2954925212292663 0.0698988124438867 3.2774438378840154 30 33 24
-0.0316770963774390 -0.7043720330829430 4.7748370224295247 32 37 31
1.5013135982800814 0.3785424832641640 4.6237461147535450 166 163 158
1.5013135982800814 0.3785424832641640 4.6237461147535450 166 163 158
-0.4259898191131468 -0.2148168490102285 2.8333439468247232 27 17 7
-0.6299281238188328 -0.2575684634076669 3.0599846952018033 84 87 94
3.0899870713968522 1.6076850076909617 3.6044252039450169 130 131 126
3.1062043237771064 1.7616916584383500 3.5536663524687091 157 159 156
3.1575560420107420 1.8162779476682760 3.4277182052853283 60 49 31
2.9080053317842940 1.7951010214499425 3.4893347705328441 41 45 31
0.6462363110081674 0.6474275170477751 2.5565731194281218 203 207 210
2.3277843534615785 1.7149389323490554 3.1108966191838232 36 37 29
0.3255762923814300 0.5831415394407338 2.9713351066129676 171 173 172
-0.2798723934356957 0.1803212539843718 2.5737982435396218 35 10 3
0.5505419466412363 0.6843381713983900 2.4799712985020470 178 179 171
0.1882162819559291 0.6113037778227353 2.9781855172131482 167 168 170
0.3520939449788709 0.7785477364957918 2.9370801508148507 71 51 44
0.5643188563844244 0.8996978782353828 2.8394091059087461 11 13 2
0.2763451999406369 0.7766442579470512 2.9190212237697422 64 59 40
-0.1331100915765904 0.6756279410596779 3.4001929093430099 32 36 37
-0.1331100915765904 0.6756279410596779 3.4001929093430099 32 36 37
-0.1394624163446370 0.6955467624639725 3.3714727987459079 54 55 50
-0.1393033014508040 0.6969363696179993 3.3732659060024019 54 55 50
0.5366442532822063 1.0221644933445480 2.8530295855287928 124 131 124
0.8877810096241853 1.3774287095541442 3.1246919576780390 151 152 147
-0.4011261287717757 0.5717623779397327 3.0453668793131525 103 107 108
-0.0459927733067831 0.8979043140105675 3.1348535440157796 140 144 145
1.3324244882748568 0.0461400046558316 3.3106094964893122 33 38 32
